13.65 -4 -2.15 0 -1 0
13.65 -3.95 -2.2 0 0 -1
13.55 14.9 1.25 0 1 0
13.55 14.85 1.3 0 0 1
13.55 14.9 1.15 0 1 0
13.55 14.9 1.05 0 1 0
13.55 14.9 0.95 0 1 0
13.55 14.9 0.85 0 1 0
13.55 14.9 0.75 0 1 0
13.55 14.9 0.65 0 1 0
13.55 14.9 0.55 0 1 0
13.55 14.9 0.45 0 1 0
13.55 14.9 0.35 0 1 0
13.55 14.9 0.25 0 1 0
13.55 14.9 0.15 0 1 0
13.55 14.9 0.05 0 1 0
13.55 14.9 -0.05 0 1 0
13.55 14.9 -0.15 0 1 0
13.55 14.9 -0.25 0 1 0
13.55 14.9 -0.35 0 1 0
13.55 14.9 -0.45 0 1 0
13.55 14.9 -0.55 0 1 0
13.55 14.9 -0.65 0 1 0
13.55 14.9 -0.75 0 1 0
13.55 14.9 -0.85 0 1 0
13.55 14.9 -0.95 0 1 0
13.55 14.9 -1.05 0 1 0
13.55 14.9 -1.15 0 1 0
13.55 14.9 -1.25 0 1 0
13.55 14.9 -1.35 0 1 0
13.55 14.9 -1.45 0 1 0
13.55 14.9 -1.55 0 1 0
13.55 14.9 -1.65 0 1 0
13.55 14.9 -1.75 0 1 0
13.55 14.9 -1.85 0 1 0
13.55 14.9 -1.95 0 1 0
13.55 14.9 -2.05 0 1 0
13.55 14.9 -2.15 0 1 0
13.55 14.85 -2.2 0 0 -1
13.55 14.75 1.3 0 0 1
13.55 14.75 -2.2 0 0 -1
13.55 14.6 1.25 0 -1 0
13.55 14.65 1.3 0 0 1
13.55 14.65 -2.2 0 0 -1
13.55 14.5 1.15 0 -1 0
13.55 14.55 1.2 0 0 1
13.55 14.55 -2.2 0 0 -1
13.55 14.4 1.05 0 -1 0
13.55 14.45 1.1 0 0 1
13.55 14.45 -2.2 0 0 -1
13.55 14.3 0.95 0 -1 0
13.55 14.35 1 0 0 1
13.55 14.35 -2.2 0 0 -1
13.55 14.2 0.85 0 -1 0
13.55 14.25 0.9 0 0 1
13.55 14.25 -2.2 0 0 -1
13.55 14.15 0.8 0 0 1
13.55 14.15 -2.2 0 0 -1
13.55 14 0.75 0 -1 0
13.55 14.05 0.8 0 0 1
13.55 14.05 -2.2 0 0 -1
13.55 13.9 0.65 0 -1 0
13.55 13.95 0.7 0 0 1
13.55 13.95 -2.2 0 0 -1
13.55 13.8 0.55 0 -1 0
13.55 13.85 0.6 0 0 1
13.55 13.85 -2.2 0 0 -1
13.55 13.7 0.45 0 -1 0
13.55 13.75 0.5 0 0 1
13.55 13.75 -2.2 0 0 -1
13.55 13.65 0.4 0 0 1
13.55 13.65 -2.2 0 0 -1
13.55 13.5 0.35 0 -1 0
13.55 13.55 0.4 0 0 1
13.55 13.55 -2.2 0 0 -1
13.55 13.4 0.25 0 -1 0
13.55 13.45 0.3 0 0 1
13.55 13.45 -2.2 0 0 -1
13.55 13.3 0.15 0 -1 0
13.55 13.35 0.2 0 0 1
13.55 13.35 -2.2 0 0 -1
13.55 13.2 0.05 0 -1 0
13.55 13.25 0.1 0 0 1
13.55 13.25 -2.2 0 0 -1
13.55 13.1 -0.05 0 -1 0
13.55 13.15 4.47035e-08 0 0 1
13.55 13.15 -2.2 0 0 -1
13.55 13.05 -0.1 0 0 1
13.55 13.05 -2.2 0 0 -1
13.55 12.95 -0.1 0 0 1
13.55 12.95 -2.2 0 0 -1
13.55 12.85 -0.1 0 0 1
13.55 12.85 -2.2 0 0 -1
13.55 12.75 -0.1 0 0 1
13.55 12.75 -2.2 0 0 -1
13.55 12.65 -0.1 0 0 1
13.55 12.65 -2.2 0 0 -1
13.55 12.55 -0.1 0 0 1
13.55 12.55 -2.2 0 0 -1
13.55 12.45 -0.1 0 0 1
13.55 12.45 -2.2 0 0 -1
13.55 12.35 -0.1 0 0 1
13.55 12.35 -2.2 0 0 -1
13.55 12.25 -0.1 0 0 1
13.55 12.25 -2.2 0 0 -1
13.55 12.15 -0.1 0 0 1
13.55 12.15 -2.2 0 0 -1
13.55 12.05 -0.1 0 0 1
13.55 12.05 -2.2 0 0 -1
13.55 11.95 -0.1 0 0 1
13.55 11.95 -2.2 0 0 -1
13.55 11.85 -0.1 0 0 1
13.55 11.85 -2.2 0 0 -1
13.55 11.75 -0.1 0 0 1
13.55 11.75 -2.2 0 0 -1
13.55 11.65 -0.1 0 0 1
13.55 11.65 -2.2 0 0 -1
13.55 11.55 -0.1 0 0 1
13.55 11.55 -2.2 0 0 -1
13.55 11.45 -0.1 0 0 1
13.55 11.45 -2.2 0 0 -1
13.55 11.35 -0.1 0 0 1
13.55 11.35 -2.2 0 0 -1
13.55 11.25 -0.1 0 0 1
13.55 11.25 -2.2 0 0 -1
13.55 11.15 -0.1 0 0 1
13.55 11.15 -2.2 0 0 -1
13.55 11.05 -0.1 0 0 1
13.55 11.05 -2.2 0 0 -1
13.55 10.95 -0.1 0 0 1
13.55 10.95 -2.2 0 0 -1
13.55 10.85 -0.1 0 0 1
13.55 10.85 -2.2 0 0 -1
13.55 10.75 -0.1 0 0 1
13.55 10.75 -2.2 0 0 -1
13.55 10.65 -0.1 0 0 1
13.55 10.65 -2.2 0 0 -1
13.55 10.55 -0.1 0 0 1
13.55 10.55 -2.2 0 0 -1
13.55 10.45 -0.1 0 0 1
13.55 10.45 -2.2 0 0 -1
13.55 10.35 -0.1 0 0 1
13.55 10.35 -2.2 0 0 -1
13.55 10.25 -0.1 0 0 1
13.55 10.25 -2.2 0 0 -1
13.55 10.15 -0.1 0 0 1
13.55 10.15 -2.2 0 0 -1
13.55 10.05 -0.1 0 0 1
13.55 10.05 -2.2 0 0 -1
13.55 9.95 -0.1 0 0 1
13.55 9.95 -2.2 0 0 -1
13.55 9.85 -0.1 0 0 1
13.55 9.85 -2.2 0 0 -1
13.55 9.75 -0.1 0 0 1
13.55 9.75 -2.2 0 0 -1
13.55 9.65 -0.1 0 0 1
13.55 9.65 -2.2 0 0 -1
13.55 9.55 -0.1 0 0 1
13.55 9.55 -2.2 0 0 -1
13.55 9.45 -0.1 0 0 1
13.55 9.45 -2.2 0 0 -1
13.55 9.35 -0.1 0 0 1
13.55 9.35 -2.2 0 0 -1
13.55 9.25 -0.1 0 0 1
13.55 9.25 -2.2 0 0 -1
13.55 9.15 -0.1 0 0 1
13.55 9.15 -2.2 0 0 -1
13.55 9.05 -0.1 0 0 1
13.55 9.05 -2.2 0 0 -1
13.55 8.95 -0.1 0 0 1
13.55 8.95 -2.2 0 0 -1
13.55 8.85 -0.1 0 0 1
13.55 8.85 -2.2 0 0 -1
13.55 8.75 -0.1 0 0 1
13.55 8.75 -2.2 0 0 -1
13.55 8.65 -0.1 0 0 1
13.55 8.65 -2.2 0 0 -1
13.55 8.55 -0.1 0 0 1
13.55 8.55 -2.2 0 0 -1
13.55 8.45 -0.1 0 0 1
13.55 8.45 -2.2 0 0 -1
13.55 8.35 -0.1 0 0 1
13.55 8.35 -2.2 0 0 -1
13.55 8.25 -0.1 0 0 1
13.55 8.25 -2.2 0 0 -1
13.55 8.15 -0.1 0 0 1
13.55 8.15 -2.2 0 0 -1
13.55 8.05 -0.1 0 0 1
13.55 8.05 -2.2 0 0 -1
13.55 7.95 -0.1 0 0 1
13.55 7.95 -2.2 0 0 -1
13.55 7.85 -0.1 0 0 1
13.55 7.85 -2.2 0 0 -1
13.55 7.75 -0.1 0 0 1
13.55 7.75 -2.2 0 0 -1
13.55 7.65 -0.1 0 0 1
13.55 7.65 -2.2 0 0 -1
13.55 7.55 -0.1 0 0 1
13.55 7.55 -2.2 0 0 -1
13.55 7.45 -0.1 0 0 1
13.55 7.45 -2.2 0 0 -1
13.55 7.35 -0.1 0 0 1
13.55 7.35 -2.2 0 0 -1
13.55 7.25 -0.1 0 0 1
13.55 7.25 -2.2 0 0 -1
13.55 7.15 -0.1 0 0 1
13.55 7.15 -2.2 0 0 -1
13.55 7.05 -0.1 0 0 1
13.55 7.05 -2.2 0 0 -1
13.55 6.95 -0.1 0 0 1
13.55 6.95 -2.2 0 0 -1
13.55 6.85 -0.1 0 0 1
13.55 6.85 -2.2 0 0 -1
13.55 6.75 -0.1 0 0 1
13.55 6.75 -2.2 0 0 -1
13.55 6.65 -0.1 0 0 1
13.55 6.65 -2.2 0 0 -1
13.55 6.55 -0.1 0 0 1
13.55 6.55 -2.2 0 0 -1
13.55 6.45 -0.1 0 0 1
13.55 6.45 -2.2 0 0 -1
13.55 6.35 -0.1 0 0 1
13.55 6.35 -2.2 0 0 -1
13.55 6.25 -0.1 0 0 1
13.55 6.25 -2.2 0 0 -1
13.55 6.15 -0.1 0 0 1
13.55 6.15 -2.2 0 0 -1
13.55 6.05 -0.1 0 0 1
13.55 6.05 -2.2 0 0 -1
13.55 5.95 -0.1 0 0 1
13.55 5.95 -2.2 0 0 -1
13.55 5.85 -0.1 0 0 1
13.55 5.85 -2.2 0 0 -1
13.55 5.75 -0.1 0 0 1
13.55 5.75 -2.2 0 0 -1
13.55 5.65 -0.1 0 0 1
13.55 5.65 -2.2 0 0 -1
13.55 5.55 -0.1 0 0 1
13.55 5.55 -2.2 0 0 -1
13.55 5.45 -0.1 0 0 1
13.55 5.45 -2.2 0 0 -1
13.55 5.35 -0.1 0 0 1
13.55 5.35 -2.2 0 0 -1
13.55 5.25 -0.1 0 0 1
13.55 5.25 -2.2 0 0 -1
13.55 5.15 -0.1 0 0 1
13.55 5.15 -2.2 0 0 -1
13.55 5.05 -0.1 0 0 1
13.55 5.05 -2.2 0 0 -1
13.55 4.95 -0.1 0 0 1
13.55 4.95 -2.2 0 0 -1
13.55 4.85 -0.1 0 0 1
13.55 4.85 -2.2 0 0 -1
13.55 4.75 -0.1 0 0 1
13.55 4.75 -2.2 0 0 -1
13.55 4.65 -0.1 0 0 1
13.55 4.65 -2.2 0 0 -1
13.55 4.55 -0.1 0 0 1
13.55 4.55 -2.2 0 0 -1
13.55 4.45 -0.1 0 0 1
13.55 4.45 -2.2 0 0 -1
13.55 4.35 -0.1 0 0 1
13.55 4.35 -2.2 0 0 -1
13.55 4.25 -0.1 0 0 1
13.55 4.25 -2.2 0 0 -1
13.55 4.15 -0.1 0 0 1
13.55 4.15 -2.2 0 0 -1
13.55 4.05 -0.1 0 0 1
13.55 4.05 -2.2 0 0 -1
13.55 3.95 -0.1 0 0 1
13.55 3.95 -2.2 0 0 -1
13.55 3.85 -0.1 0 0 1
13.55 3.85 -2.2 0 0 -1
13.55 3.75 -0.1 0 0 1
13.55 3.75 -2.2 0 0 -1
13.55 3.65 -0.1 0 0 1
13.55 3.65 -2.2 0 0 -1
13.55 3.55 -0.1 0 0 1
13.55 3.55 -2.2 0 0 -1
13.55 3.45 -0.1 0 0 1
13.55 3.45 -2.2 0 0 -1
13.55 3.35 -0.1 0 0 1
13.55 3.35 -2.2 0 0 -1
13.55 3.25 -0.1 0 0 1
13.55 3.25 -2.2 0 0 -1
13.55 3.15 -0.1 0 0 1
13.55 3.15 -2.2 0 0 -1
13.55 3.05 -0.1 0 0 1
13.55 3.05 -2.2 0 0 -1
13.55 2.95 -0.1 0 0 1
13.55 2.95 -2.2 0 0 -1
13.55 2.85 -0.1 0 0 1
13.55 2.85 -2.2 0 0 -1
13.55 2.75 -0.1 0 0 1
13.55 2.75 -2.2 0 0 -1
13.55 2.65 -0.1 0 0 1
13.55 2.65 -2.2 0 0 -1
13.55 2.55 -0.1 0 0 1
13.55 2.55 -2.2 0 0 -1
13.55 2.45 -0.1 0 0 1
13.55 2.45 -2.2 0 0 -1
13.55 2.35 -0.1 0 0 1
13.55 2.35 -2.2 0 0 -1
13.55 2.25 -0.1 0 0 1
13.55 2.25 -2.2 0 0 -1
13.55 2.15 -0.1 0 0 1
13.55 2.15 -2.2 0 0 -1
13.55 2.05 -0.1 0 0 1
13.55 2.05 -2.2 0 0 -1
13.55 1.95 -0.1 0 0 1
13.55 1.95 -2.2 0 0 -1
13.55 1.85 -0.1 0 0 1
13.55 1.85 -2.2 0 0 -1
13.55 1.75 -0.1 0 0 1
13.55 1.75 -2.2 0 0 -1
13.55 1.65 -0.1 0 0 1
13.55 1.65 -2.2 0 0 -1
13.55 1.55 -0.1 0 0 1
13.55 1.55 -2.2 0 0 -1
13.55 1.45 -0.1 0 0 1
13.55 1.45 -2.2 0 0 -1
13.55 1.35 -0.1 0 0 1
13.55 1.35 -2.2 0 0 -1
13.55 1.25 -0.1 0 0 1
13.55 1.25 -2.2 0 0 -1
13.55 1.15 -0.1 0 0 1
13.55 1.15 -2.2 0 0 -1
13.55 1.05 -0.1 0 0 1
13.55 1.05 -2.2 0 0 -1
13.55 0.95 -0.1 0 0 1
13.55 0.95 -2.2 0 0 -1
13.55 0.85 -0.1 0 0 1
13.55 0.85 -2.2 0 0 -1
13.55 0.75 -0.1 0 0 1
13.55 0.75 -2.2 0 0 -1
13.55 0.65 -0.1 0 0 1
13.55 0.65 -2.2 0 0 -1
13.55 0.55 -0.1 0 0 1
13.55 0.55 -2.2 0 0 -1
13.55 0.45 -0.1 0 0 1
13.55 0.45 -2.2 0 0 -1
13.55 0.35 -0.1 0 0 1
13.55 0.35 -2.2 0 0 -1
13.55 0.25 -0.1 0 0 1
13.55 0.25 -2.2 0 0 -1
13.55 0.15 -0.1 0 0 1
13.55 0.15 -2.2 0 0 -1
13.55 0.0500001 -0.1 0 0 1
13.55 0.0500001 -2.2 0 0 -1
13.55 -0.0499999 -0.1 0 0 1
13.55 -0.0499999 -2.2 0 0 -1
13.55 -0.15 -0.1 0 0 1
13.55 -0.15 -2.2 0 0 -1
13.55 -0.25 -0.1 0 0 1
13.55 -0.25 -2.2 0 0 -1
13.55 -0.35 -0.1 0 0 1
13.55 -0.35 -2.2 0 0 -1
13.55 -0.45 -0.1 0 0 1
13.55 -0.45 -2.2 0 0 -1
13.55 -0.55 -0.1 0 0 1
13.55 -0.55 -2.2 0 0 -1
13.55 -0.65 -0.1 0 0 1
13.55 -0.65 -2.2 0 0 -1
13.55 -0.75 -0.1 0 0 1
13.55 -0.75 -2.2 0 0 -1
13.55 -0.85 -0.1 0 0 1
13.55 -0.85 -2.2 0 0 -1
13.55 -0.95 -0.1 0 0 1
13.55 -0.95 -2.2 0 0 -1
13.55 -1.05 -0.1 0 0 1
13.55 -1.05 -2.2 0 0 -1
13.55 -1.15 -0.1 0 0 1
13.55 -1.15 -2.2 0 0 -1
13.55 -1.25 -0.1 0 0 1
13.55 -1.25 -2.2 0 0 -1
13.55 -1.35 -0.1 0 0 1
13.55 -1.35 -2.2 0 0 -1
13.55 -1.45 -0.1 0 0 1
13.55 -1.45 -2.2 0 0 -1
13.55 -1.55 -0.1 0 0 1
13.55 -1.55 -2.2 0 0 -1
13.55 -1.65 -0.1 0 0 1
13.55 -1.65 -2.2 0 0 -1
13.55 -1.75 -0.1 0 0 1
13.55 -1.75 -2.2 0 0 -1
13.55 -1.85 -0.1 0 0 1
13.55 -1.85 -2.2 0 0 -1
13.55 -1.95 -0.1 0 0 1
13.55 -1.95 -2.2 0 0 -1
13.55 -2.05 -0.1 0 0 1
13.55 -2.05 -2.2 0 0 -1
13.55 -2.15 -0.1 0 0 1
13.55 -2.15 -2.2 0 0 -1
13.55 -2.25 -0.1 0 0 1
13.55 -2.25 -2.2 0 0 -1
13.55 -2.35 -0.1 0 0 1
13.55 -2.35 -2.2 0 0 -1
13.55 -2.45 -0.1 0 0 1
13.55 -2.45 -2.2 0 0 -1
13.55 -2.55 -0.1 0 0 1
13.55 -2.55 -2.2 0 0 -1
13.55 -2.65 -0.1 0 0 1
13.55 -2.65 -2.2 0 0 -1
13.55 -2.75 -0.1 0 0 1
13.55 -2.75 -2.2 0 0 -1
13.55 -2.85 -0.1 0 0 1
13.55 -2.85 -2.2 0 0 -1
13.55 -2.95 -0.1 0 0 1
13.55 -2.95 -2.2 0 0 -1
13.55 -3.05 -0.1 0 0 1
13.55 -3.05 -2.2 0 0 -1
13.55 -3.15 -0.1 0 0 1
13.55 -3.15 -2.2 0 0 -1
13.55 -3.25 -0.1 0 0 1
13.55 -3.25 -2.2 0 0 -1
13.55 -3.35 -0.1 0 0 1
13.55 -3.35 -2.2 0 0 -1
13.55 -3.45 -0.1 0 0 1
13.55 -3.45 -2.2 0 0 -1
13.55 -3.55 -0.1 0 0 1
13.55 -3.55 -2.2 0 0 -1
13.55 -3.65 -0.1 0 0 1
13.55 -3.65 -2.2 0 0 -1
13.55 -3.75 -0.1 0 0 1
13.55 -3.75 -2.2 0 0 -1
13.55 -3.85 -0.1 0 0 1
13.55 -3.85 -2.2 0 0 -1
13.55 -4 -0.15 0 -1 0
13.55 -3.95 -0.1 0 0 1
13.55 -4 -0.25 0 -1 0
13.55 -4 -0.35 0 -1 0
13.55 -4 -0.45 0 -1 0
13.55 -4 -0.55 0 -1 0
13.55 -4 -0.65 0 -1 0
13.55 -4 -0.75 0 -1 0
13.55 -4 -0.85 0 -1 0
13.55 -4 -0.95 0 -1 0
13.55 -4 -1.05 0 -1 0
13.55 -4 -1.15 0 -1 0
13.55 -4 -1.25 0 -1 0
13.55 -4 -1.35 0 -1 0
13.55 -4 -1.45 0 -1 0
13.55 -4 -1.55 0 -1 0
13.55 -4 -1.65 0 -1 0
13.55 -4 -1.75 0 -1 0
13.55 -4 -1.85 0 -1 0
13.55 -4 -1.95 0 -1 0
13.55 -4 -2.05 0 -1 0
13.55 -4 -2.15 0 -1 0
13.55 -3.95 -2.2 0 0 -1
13.45 14.9 1.25 0 1 0
13.45 14.85 1.3 0 0 1
13.45 14.9 1.15 0 1 0
13.45 14.9 1.05 0 1 0
13.45 14.9 0.95 0 1 0
13.45 14.9 0.85 0 1 0
13.45 14.9 0.75 0 1 0
13.45 14.9 0.65 0 1 0
13.45 14.9 0.55 0 1 0
13.45 14.9 0.45 0 1 0
13.45 14.9 0.35 0 1 0
13.45 14.9 0.25 0 1 0
13.45 14.9 0.15 0 1 0
13.45 14.9 0.05 0 1 0
13.45 14.9 -0.05 0 1 0
13.45 14.9 -0.15 0 1 0
13.45 14.9 -0.25 0 1 0
13.45 14.9 -0.35 0 1 0
13.45 14.9 -0.45 0 1 0
13.45 14.9 -0.55 0 1 0
13.45 14.9 -0.65 0 1 0
13.45 14.9 -0.75 0 1 0
13.45 14.9 -0.85 0 1 0
13.45 14.9 -0.95 0 1 0
13.45 14.9 -1.05 0 1 0
13.45 14.9 -1.15 0 1 0
13.45 14.9 -1.25 0 1 0
13.45 14.9 -1.35 0 1 0
13.45 14.9 -1.45 0 1 0
13.45 14.9 -1.55 0 1 0
13.45 14.9 -1.65 0 1 0
13.45 14.9 -1.75 0 1 0
13.45 14.9 -1.85 0 1 0
13.45 14.9 -1.95 0 1 0
13.45 14.9 -2.05 0 1 0
13.45 14.9 -2.15 0 1 0
13.45 14.85 -2.2 0 0 -1
13.45 14.75 1.3 0 0 1
13.45 14.75 -2.2 0 0 -1
13.45 14.6 1.25 0 -1 0
13.45 14.65 1.3 0 0 1
13.45 14.65 -2.2 0 0 -1
13.45 14.5 1.15 0 -1 0
13.45 14.55 1.2 0 0 1
13.45 14.55 -2.2 0 0 -1
13.45 14.4 1.05 0 -1 0
13.45 14.45 1.1 0 0 1
13.45 14.45 -2.2 0 0 -1
13.45 14.3 0.95 0 -1 0
13.45 14.35 1 0 0 1
13.45 14.35 -2.2 0 0 -1
13.45 14.2 0.85 0 -1 0
13.45 14.25 0.9 0 0 1
13.45 14.25 -2.2 0 0 -1
13.45 14.15 0.8 0 0 1
13.45 14.15 -2.2 0 0 -1
13.45 14 0.75 0 -1 0
13.45 14.05 0.8 0 0 1
13.45 14.05 -2.2 0 0 -1
13.45 13.9 0.65 0 -1 0
13.45 13.95 0.7 0 0 1
13.45 13.95 -2.2 0 0 -1
13.45 13.8 0.55 0 -1 0
13.45 13.85 0.6 0 0 1
13.45 13.85 -2.2 0 0 -1
13.45 13.7 0.45 0 -1 0
13.45 13.75 0.5 0 0 1
13.45 13.75 -2.2 0 0 -1
13.45 13.65 0.4 0 0 1
13.45 13.65 -2.2 0 0 -1
13.45 13.5 0.35 0 -1 0
13.45 13.55 0.4 0 0 1
13.45 13.55 -2.2 0 0 -1
13.45 13.4 0.25 0 -1 0
13.45 13.45 0.3 0 0 1
13.45 13.45 -2.2 0 0 -1
13.45 13.3 0.15 0 -1 0
13.45 13.35 0.2 0 0 1
13.45 13.35 -2.2 0 0 -1
13.45 13.2 0.05 0 -1 0
13.45 13.25 0.1 0 0 1
13.45 13.25 -2.2 0 0 -1
13.45 13.1 -0.05 0 -1 0
13.45 13.15 4.47035e-08 0 0 1
13.45 13.15 -2.2 0 0 -1
13.45 13.05 -0.1 0 0 1
13.45 13.05 -2.2 0 0 -1
13.45 12.95 -0.1 0 0 1
13.45 12.95 -2.2 0 0 -1
13.45 12.85 -0.1 0 0 1
13.45 12.85 -2.2 0 0 -1
13.45 12.75 -0.1 0 0 1
13.45 12.75 -2.2 0 0 -1
13.45 12.65 -0.1 0 0 1
13.45 12.65 -2.2 0 0 -1
13.45 12.55 -0.1 0 0 1
13.45 12.55 -2.2 0 0 -1
13.45 12.45 -0.1 0 0 1
13.45 12.45 -2.2 0 0 -1
13.45 12.35 -0.1 0 0 1
13.45 12.35 -2.2 0 0 -1
13.45 12.25 -0.1 0 0 1
13.45 12.25 -2.2 0 0 -1
13.45 12.15 -0.1 0 0 1
13.45 12.15 -2.2 0 0 -1
13.45 12.05 -0.1 0 0 1
13.45 12.05 -2.2 0 0 -1
13.45 11.95 -0.1 0 0 1
13.45 11.95 -2.2 0 0 -1
13.45 11.85 -0.1 0 0 1
13.45 11.85 -2.2 0 0 -1
13.45 11.75 -0.1 0 0 1
13.45 11.75 -2.2 0 0 -1
13.45 11.65 -0.1 0 0 1
13.45 11.65 -2.2 0 0 -1
13.45 11.55 -0.1 0 0 1
13.45 11.55 -2.2 0 0 -1
13.45 11.45 -0.1 0 0 1
13.45 11.45 -2.2 0 0 -1
13.45 11.35 -0.1 0 0 1
13.45 11.35 -2.2 0 0 -1
13.45 11.25 -0.1 0 0 1
13.45 11.25 -2.2 0 0 -1
13.45 11.15 -0.1 0 0 1
13.45 11.15 -2.2 0 0 -1
13.45 11.05 -0.1 0 0 1
13.45 11.05 -2.2 0 0 -1
13.45 10.95 -0.1 0 0 1
13.45 10.95 -2.2 0 0 -1
13.45 10.85 -0.1 0 0 1
13.45 10.85 -2.2 0 0 -1
13.45 10.75 -0.1 0 0 1
13.45 10.75 -2.2 0 0 -1
13.45 10.65 -0.1 0 0 1
13.45 10.65 -2.2 0 0 -1
13.45 10.55 -0.1 0 0 1
13.45 10.55 -2.2 0 0 -1
13.45 10.45 -0.1 0 0 1
13.45 10.45 -2.2 0 0 -1
13.45 10.35 -0.1 0 0 1
13.45 10.35 -2.2 0 0 -1
13.45 10.25 -0.1 0 0 1
13.45 10.25 -2.2 0 0 -1
13.45 10.15 -0.1 0 0 1
13.45 10.15 -2.2 0 0 -1
13.45 10.05 -0.1 0 0 1
13.45 10.05 -2.2 0 0 -1
13.45 9.95 -0.1 0 0 1
13.45 9.95 -2.2 0 0 -1
13.45 9.85 -0.1 0 0 1
13.45 9.85 -2.2 0 0 -1
13.45 9.75 -0.1 0 0 1
13.45 9.75 -2.2 0 0 -1
13.45 9.65 -0.1 0 0 1
13.45 9.65 -2.2 0 0 -1
13.45 9.55 -0.1 0 0 1
13.45 9.55 -2.2 0 0 -1
13.45 9.45 -0.1 0 0 1
13.45 9.45 -2.2 0 0 -1
13.45 9.35 -0.1 0 0 1
13.45 9.35 -2.2 0 0 -1
13.45 9.25 -0.1 0 0 1
13.45 9.25 -2.2 0 0 -1
13.45 9.15 -0.1 0 0 1
13.45 9.15 -2.2 0 0 -1
13.45 9.05 -0.1 0 0 1
13.45 9.05 -2.2 0 0 -1
13.45 8.95 -0.1 0 0 1
13.45 8.95 -2.2 0 0 -1
13.45 8.85 -0.1 0 0 1
13.45 8.85 -2.2 0 0 -1
13.45 8.75 -0.1 0 0 1
13.45 8.75 -2.2 0 0 -1
13.45 8.65 -0.1 0 0 1
13.45 8.65 -2.2 0 0 -1
13.45 8.55 -0.1 0 0 1
13.45 8.55 -2.2 0 0 -1
13.45 8.45 -0.1 0 0 1
13.45 8.45 -2.2 0 0 -1
13.45 8.35 -0.1 0 0 1
13.45 8.35 -2.2 0 0 -1
13.45 8.25 -0.1 0 0 1
13.45 8.25 -2.2 0 0 -1
13.45 8.15 -0.1 0 0 1
13.45 8.15 -2.2 0 0 -1
13.45 8.05 -0.1 0 0 1
13.45 8.05 -2.2 0 0 -1
13.45 7.95 -0.1 0 0 1
13.45 7.95 -2.2 0 0 -1
13.45 7.85 -0.1 0 0 1
13.45 7.85 -2.2 0 0 -1
13.45 7.75 -0.1 0 0 1
13.45 7.75 -2.2 0 0 -1
13.45 7.65 -0.1 0 0 1
13.45 7.65 -2.2 0 0 -1
13.45 7.55 -0.1 0 0 1
13.45 7.55 -2.2 0 0 -1
13.45 7.45 -0.1 0 0 1
13.45 7.45 -2.2 0 0 -1
13.45 7.35 -0.1 0 0 1
13.45 7.35 -2.2 0 0 -1
13.45 7.25 -0.1 0 0 1
13.45 7.25 -2.2 0 0 -1
13.45 7.15 -0.1 0 0 1
13.45 7.15 -2.2 0 0 -1
13.45 7.05 -0.1 0 0 1
13.45 7.05 -2.2 0 0 -1
13.45 6.95 -0.1 0 0 1
13.45 6.95 -2.2 0 0 -1
13.45 6.85 -0.1 0 0 1
13.45 6.85 -2.2 0 0 -1
13.45 6.75 -0.1 0 0 1
13.45 6.75 -2.2 0 0 -1
13.45 6.65 -0.1 0 0 1
13.45 6.65 -2.2 0 0 -1
13.45 6.55 -0.1 0 0 1
13.45 6.55 -2.2 0 0 -1
13.45 6.45 -0.1 0 0 1
13.45 6.45 -2.2 0 0 -1
13.45 6.35 -0.1 0 0 1
13.45 6.35 -2.2 0 0 -1
13.45 6.25 -0.1 0 0 1
13.45 6.25 -2.2 0 0 -1
13.45 6.15 -0.1 0 0 1
13.45 6.15 -2.2 0 0 -1
13.45 6.05 -0.1 0 0 1
13.45 6.05 -2.2 0 0 -1
13.45 5.95 -0.1 0 0 1
13.45 5.95 -2.2 0 0 -1
13.45 5.85 -0.1 0 0 1
13.45 5.85 -2.2 0 0 -1
13.45 5.75 -0.1 0 0 1
13.45 5.75 -2.2 0 0 -1
13.45 5.65 -0.1 0 0 1
13.45 5.65 -2.2 0 0 -1
13.45 5.55 -0.1 0 0 1
13.45 5.55 -2.2 0 0 -1
13.45 5.45 -0.1 0 0 1
13.45 5.45 -2.2 0 0 -1
13.45 5.35 -0.1 0 0 1
13.45 5.35 -2.2 0 0 -1
13.45 5.25 -0.1 0 0 1
13.45 5.25 -2.2 0 0 -1
13.45 5.15 -0.1 0 0 1
13.45 5.15 -2.2 0 0 -1
13.45 5.05 -0.1 0 0 1
13.45 5.05 -2.2 0 0 -1
13.45 4.95 -0.1 0 0 1
13.45 4.95 -2.2 0 0 -1
13.45 4.85 -0.1 0 0 1
13.45 4.85 -2.2 0 0 -1
13.45 4.75 -0.1 0 0 1
13.45 4.75 -2.2 0 0 -1
13.45 4.65 -0.1 0 0 1
13.45 4.65 -2.2 0 0 -1
13.45 4.55 -0.1 0 0 1
13.45 4.55 -2.2 0 0 -1
13.45 4.45 -0.1 0 0 1
13.45 4.45 -2.2 0 0 -1
13.45 4.35 -0.1 0 0 1
13.45 4.35 -2.2 0 0 -1
13.45 4.25 -0.1 0 0 1
13.45 4.25 -2.2 0 0 -1
13.45 4.15 -0.1 0 0 1
13.45 4.15 -2.2 0 0 -1
13.45 4.05 -0.1 0 0 1
13.45 4.05 -2.2 0 0 -1
13.45 3.95 -0.1 0 0 1
13.45 3.95 -2.2 0 0 -1
13.45 3.85 -0.1 0 0 1
13.45 3.85 -2.2 0 0 -1
13.45 3.75 -0.1 0 0 1
13.45 3.75 -2.2 0 0 -1
13.45 3.65 -0.1 0 0 1
13.45 3.65 -2.2 0 0 -1
13.45 3.55 -0.1 0 0 1
13.45 3.55 -2.2 0 0 -1
13.45 3.45 -0.1 0 0 1
13.45 3.45 -2.2 0 0 -1
13.45 3.35 -0.1 0 0 1
13.45 3.35 -2.2 0 0 -1
13.45 3.25 -0.1 0 0 1
13.45 3.25 -2.2 0 0 -1
13.45 3.15 -0.1 0 0 1
13.45 3.15 -2.2 0 0 -1
13.45 3.05 -0.1 0 0 1
13.45 3.05 -2.2 0 0 -1
13.45 2.95 -0.1 0 0 1
13.45 2.95 -2.2 0 0 -1
13.45 2.85 -0.1 0 0 1
13.45 2.85 -2.2 0 0 -1
13.45 2.75 -0.1 0 0 1
13.45 2.75 -2.2 0 0 -1
13.45 2.65 -0.1 0 0 1
13.45 2.65 -2.2 0 0 -1
13.45 2.55 -0.1 0 0 1
13.45 2.55 -2.2 0 0 -1
13.45 2.45 -0.1 0 0 1
13.45 2.45 -2.2 0 0 -1
13.45 2.35 -0.1 0 0 1
13.45 2.35 -2.2 0 0 -1
13.45 2.25 -0.1 0 0 1
13.45 2.25 -2.2 0 0 -1
13.45 2.15 -0.1 0 0 1
13.45 2.15 -2.2 0 0 -1
13.45 2.05 -0.1 0 0 1
13.45 2.05 -2.2 0 0 -1
13.45 1.95 -0.1 0 0 1
13.45 1.95 -2.2 0 0 -1
13.45 1.85 -0.1 0 0 1
13.45 1.85 -2.2 0 0 -1
13.45 1.75 -0.1 0 0 1
13.45 1.75 -2.2 0 0 -1
13.45 1.65 -0.1 0 0 1
13.45 1.65 -2.2 0 0 -1
13.45 1.55 -0.1 0 0 1
13.45 1.55 -2.2 0 0 -1
13.45 1.45 -0.1 0 0 1
13.45 1.45 -2.2 0 0 -1
13.45 1.35 -0.1 0 0 1
13.45 1.35 -2.2 0 0 -1
13.45 1.25 -0.1 0 0 1
13.45 1.25 -2.2 0 0 -1
13.45 1.15 -0.1 0 0 1
13.45 1.15 -2.2 0 0 -1
13.45 1.05 -0.1 0 0 1
13.45 1.05 -2.2 0 0 -1
13.45 0.95 -0.1 0 0 1
13.45 0.95 -2.2 0 0 -1
13.45 0.85 -0.1 0 0 1
13.45 0.85 -2.2 0 0 -1
13.45 0.75 -0.1 0 0 1
13.45 0.75 -2.2 0 0 -1
13.45 0.65 -0.1 0 0 1
13.45 0.65 -2.2 0 0 -1
13.45 0.55 -0.1 0 0 1
13.45 0.55 -2.2 0 0 -1
13.45 0.45 -0.1 0 0 1
13.45 0.45 -2.2 0 0 -1
13.45 0.35 -0.1 0 0 1
13.45 0.35 -2.2 0 0 -1
13.45 0.25 -0.1 0 0 1
13.45 0.25 -2.2 0 0 -1
13.45 0.15 -0.1 0 0 1
13.45 0.15 -2.2 0 0 -1
13.45 0.0500001 -0.1 0 0 1
13.45 0.0500001 -2.2 0 0 -1
13.45 -0.0499999 -0.1 0 0 1
13.45 -0.0499999 -2.2 0 0 -1
13.45 -0.15 -0.1 0 0 1
13.45 -0.15 -2.2 0 0 -1
13.45 -0.25 -0.1 0 0 1
13.45 -0.25 -2.2 0 0 -1
13.45 -0.35 -0.1 0 0 1
13.45 -0.35 -2.2 0 0 -1
13.45 -0.45 -0.1 0 0 1
13.45 -0.45 -2.2 0 0 -1
13.45 -0.55 -0.1 0 0 1
13.45 -0.55 -2.2 0 0 -1
13.45 -0.65 -0.1 0 0 1
13.45 -0.65 -2.2 0 0 -1
13.45 -0.75 -0.1 0 0 1
13.45 -0.75 -2.2 0 0 -1
13.45 -0.85 -0.1 0 0 1
13.45 -0.85 -2.2 0 0 -1
13.45 -0.95 -0.1 0 0 1
13.45 -0.95 -2.2 0 0 -1
13.45 -1.05 -0.1 0 0 1
13.45 -1.05 -2.2 0 0 -1
13.45 -1.15 -0.1 0 0 1
13.45 -1.15 -2.2 0 0 -1
13.45 -1.25 -0.1 0 0 1
13.45 -1.25 -2.2 0 0 -1
13.45 -1.35 -0.1 0 0 1
13.45 -1.35 -2.2 0 0 -1
13.45 -1.45 -0.1 0 0 1
13.45 -1.45 -2.2 0 0 -1
13.45 -1.55 -0.1 0 0 1
13.45 -1.55 -2.2 0 0 -1
13.45 -1.65 -0.1 0 0 1
13.45 -1.65 -2.2 0 0 -1
13.45 -1.75 -0.1 0 0 1
13.45 -1.75 -2.2 0 0 -1
13.45 -1.85 -0.1 0 0 1
13.45 -1.85 -2.2 0 0 -1
13.45 -1.95 -0.1 0 0 1
13.45 -1.95 -2.2 0 0 -1
13.45 -2.05 -0.1 0 0 1
13.45 -2.05 -2.2 0 0 -1
13.45 -2.15 -0.1 0 0 1
13.45 -2.15 -2.2 0 0 -1
13.45 -2.25 -0.1 0 0 1
13.45 -2.25 -2.2 0 0 -1
13.45 -2.35 -0.1 0 0 1
13.45 -2.35 -2.2 0 0 -1
13.45 -2.45 -0.1 0 0 1
13.45 -2.45 -2.2 0 0 -1
13.45 -2.55 -0.1 0 0 1
13.45 -2.55 -2.2 0 0 -1
13.45 -2.65 -0.1 0 0 1
13.45 -2.65 -2.2 0 0 -1
13.45 -2.75 -0.1 0 0 1
13.45 -2.75 -2.2 0 0 -1
13.45 -2.85 -0.1 0 0 1
13.45 -2.85 -2.2 0 0 -1
13.45 -2.95 -0.1 0 0 1
13.45 -2.95 -2.2 0 0 -1
13.45 -3.05 -0.1 0 0 1
13.45 -3.05 -2.2 0 0 -1
13.45 -3.15 -0.1 0 0 1
13.45 -3.15 -2.2 0 0 -1
13.45 -3.25 -0.1 0 0 1
13.45 -3.25 -2.2 0 0 -1
13.45 -3.35 -0.1 0 0 1
13.45 -3.35 -2.2 0 0 -1
13.45 -3.45 -0.1 0 0 1
13.45 -3.45 -2.2 0 0 -1
13.45 -3.55 -0.1 0 0 1
13.45 -3.55 -2.2 0 0 -1
13.45 -3.65 -0.1 0 0 1
13.45 -3.65 -2.2 0 0 -1
13.45 -3.75 -0.1 0 0 1
13.45 -3.75 -2.2 0 0 -1
13.45 -3.85 -0.1 0 0 1
13.45 -3.85 -2.2 0 0 -1
13.45 -4 -0.15 0 -1 0
13.45 -3.95 -0.1 0 0 1
13.45 -4 -0.25 0 -1 0
13.45 -4 -0.35 0 -1 0
13.45 -4 -0.45 0 -1 0
13.45 -4 -0.55 0 -1 0
13.45 -4 -0.65 0 -1 0
13.45 -4 -0.75 0 -1 0
13.45 -4 -0.85 0 -1 0
13.45 -4 -0.95 0 -1 0
13.45 -4 -1.05 0 -1 0
13.45 -4 -1.15 0 -1 0
13.45 -4 -1.25 0 -1 0
13.45 -4 -1.35 0 -1 0
13.45 -4 -1.45 0 -1 0
13.45 -4 -1.55 0 -1 0
13.45 -4 -1.65 0 -1 0
13.45 -4 -1.75 0 -1 0
13.45 -4 -1.85 0 -1 0
13.45 -4 -1.95 0 -1 0
13.45 -4 -2.05 0 -1 0
13.45 -4 -2.15 0 -1 0
13.45 -3.95 -2.2 0 0 -1
13.35 14.9 1.25 0 1 0
13.35 14.85 1.3 0 0 1
13.35 14.9 1.15 0 1 0
13.35 14.9 1.05 0 1 0
13.35 14.9 0.95 0 1 0
13.35 14.9 0.85 0 1 0
13.35 14.9 0.75 0 1 0
13.35 14.9 0.65 0 1 0
13.35 14.9 0.55 0 1 0
13.35 14.9 0.45 0 1 0
13.35 14.9 0.35 0 1 0
13.35 14.9 0.25 0 1 0
13.35 14.9 0.15 0 1 0
13.35 14.9 0.05 0 1 0
13.35 14.9 -0.05 0 1 0
13.35 14.9 -0.15 0 1 0
13.35 14.9 -0.25 0 1 0
13.35 14.9 -0.35 0 1 0
13.35 14.9 -0.45 0 1 0
13.35 14.9 -0.55 0 1 0
13.35 14.9 -0.65 0 1 0
13.35 14.9 -0.75 0 1 0
13.35 14.9 -0.85 0 1 0
13.35 14.9 -0.95 0 1 0
13.35 14.9 -1.05 0 1 0
13.35 14.9 -1.15 0 1 0
13.35 14.9 -1.25 0 1 0
13.35 14.9 -1.35 0 1 0
13.35 14.9 -1.45 0 1 0
13.35 14.9 -1.55 0 1 0
13.35 14.9 -1.65 0 1 0
13.35 14.9 -1.75 0 1 0
13.35 14.9 -1.85 0 1 0
13.35 14.9 -1.95 0 1 0
13.35 14.9 -2.05 0 1 0
13.35 14.9 -2.15 0 1 0
13.35 14.85 -2.2 0 0 -1
13.35 14.75 1.3 0 0 1
13.35 14.75 -2.2 0 0 -1
13.35 14.6 1.25 0 -1 0
13.35 14.65 1.3 0 0 1
13.35 14.65 -2.2 0 0 -1
13.35 14.5 1.15 0 -1 0
13.35 14.55 1.2 0 0 1
13.35 14.55 -2.2 0 0 -1
13.35 14.4 1.05 0 -1 0
13.35 14.45 1.1 0 0 1
13.35 14.45 -2.2 0 0 -1
13.35 14.3 0.95 0 -1 0
13.35 14.35 1 0 0 1
13.35 14.35 -2.2 0 0 -1
13.35 14.2 0.85 0 -1 0
13.35 14.25 0.9 0 0 1
13.35 14.25 -2.2 0 0 -1
13.35 14.15 0.8 0 0 1
13.35 14.15 -2.2 0 0 -1
13.35 14 0.75 0 -1 0
13.35 14.05 0.8 0 0 1
13.35 14.05 -2.2 0 0 -1
13.35 13.9 0.65 0 -1 0
13.35 13.95 0.7 0 0 1
13.35 13.95 -2.2 0 0 -1
13.35 13.8 0.55 0 -1 0
13.35 13.85 0.6 0 0 1
13.35 13.85 -2.2 0 0 -1
13.35 13.7 0.45 0 -1 0
13.35 13.75 0.5 0 0 1
13.35 13.75 -2.2 0 0 -1
13.35 13.65 0.4 0 0 1
13.35 13.65 -2.2 0 0 -1
13.35 13.5 0.35 0 -1 0
13.35 13.55 0.4 0 0 1
13.35 13.55 -2.2 0 0 -1
13.35 13.4 0.25 0 -1 0
13.35 13.45 0.3 0 0 1
13.35 13.45 -2.2 0 0 -1
13.35 13.3 0.15 0 -1 0
13.35 13.35 0.2 0 0 1
13.35 13.35 -2.2 0 0 -1
13.35 13.2 0.05 0 -1 0
13.35 13.25 0.1 0 0 1
13.35 13.25 -2.2 0 0 -1
13.35 13.1 -0.05 0 -1 0
13.35 13.15 4.47035e-08 0 0 1
13.35 13.15 -2.2 0 0 -1
13.35 13.05 -0.1 0 0 1
13.35 13.05 -2.2 0 0 -1
13.35 12.95 -0.1 0 0 1
13.35 12.95 -2.2 0 0 -1
13.35 12.85 -0.1 0 0 1
13.35 12.85 -2.2 0 0 -1
13.35 12.75 -0.1 0 0 1
13.35 12.75 -2.2 0 0 -1
13.35 12.65 -0.1 0 0 1
13.35 12.65 -2.2 0 0 -1
13.35 12.55 -0.1 0 0 1
13.35 12.55 -2.2 0 0 -1
13.35 12.45 -0.1 0 0 1
13.35 12.45 -2.2 0 0 -1
13.35 12.35 -0.1 0 0 1
13.35 12.35 -2.2 0 0 -1
13.35 12.25 -0.1 0 0 1
13.35 12.25 -2.2 0 0 -1
13.35 12.15 -0.1 0 0 1
13.35 12.15 -2.2 0 0 -1
13.35 12.05 -0.1 0 0 1
13.35 12.05 -2.2 0 0 -1
13.35 11.95 -0.1 0 0 1
13.35 11.95 -2.2 0 0 -1
13.35 11.85 -0.1 0 0 1
13.35 11.85 -2.2 0 0 -1
13.35 11.75 -0.1 0 0 1
13.35 11.75 -2.2 0 0 -1
13.35 11.65 -0.1 0 0 1
13.35 11.65 -2.2 0 0 -1
13.35 11.55 -0.1 0 0 1
13.35 11.55 -2.2 0 0 -1
13.35 11.45 -0.1 0 0 1
13.35 11.45 -2.2 0 0 -1
13.35 11.35 -0.1 0 0 1
13.35 11.35 -2.2 0 0 -1
13.35 11.25 -0.1 0 0 1
13.35 11.25 -2.2 0 0 -1
13.35 11.15 -0.1 0 0 1
13.35 11.15 -2.2 0 0 -1
13.35 11.05 -0.1 0 0 1
13.35 11.05 -2.2 0 0 -1
13.35 10.95 -0.1 0 0 1
13.35 10.95 -2.2 0 0 -1
13.35 10.85 -0.1 0 0 1
13.35 10.85 -2.2 0 0 -1
13.35 10.75 -0.1 0 0 1
13.35 10.75 -2.2 0 0 -1
13.35 10.65 -0.1 0 0 1
13.35 10.65 -2.2 0 0 -1
13.35 10.55 -0.1 0 0 1
13.35 10.55 -2.2 0 0 -1
13.35 10.45 -0.1 0 0 1
13.35 10.45 -2.2 0 0 -1
13.35 10.35 -0.1 0 0 1
13.35 10.35 -2.2 0 0 -1
13.35 10.25 -0.1 0 0 1
13.35 10.25 -2.2 0 0 -1
13.35 10.15 -0.1 0 0 1
13.35 10.15 -2.2 0 0 -1
13.35 10.05 -0.1 0 0 1
13.35 10.05 -2.2 0 0 -1
13.35 9.95 -0.1 0 0 1
13.35 9.95 -2.2 0 0 -1
13.35 9.85 -0.1 0 0 1
13.35 9.85 -2.2 0 0 -1
13.35 9.75 -0.1 0 0 1
13.35 9.75 -2.2 0 0 -1
13.35 9.65 -0.1 0 0 1
13.35 9.65 -2.2 0 0 -1
13.35 9.55 -0.1 0 0 1
13.35 9.55 -2.2 0 0 -1
13.35 9.45 -0.1 0 0 1
13.35 9.45 -2.2 0 0 -1
13.35 9.35 -0.1 0 0 1
13.35 9.35 -2.2 0 0 -1
13.35 9.25 -0.1 0 0 1
13.35 9.25 -2.2 0 0 -1
13.35 9.15 -0.1 0 0 1
13.35 9.15 -2.2 0 0 -1
13.35 9.05 -0.1 0 0 1
13.35 9.05 -2.2 0 0 -1
13.35 8.95 -0.1 0 0 1
13.35 8.95 -2.2 0 0 -1
13.35 8.85 -0.1 0 0 1
13.35 8.85 -2.2 0 0 -1
13.35 8.75 -0.1 0 0 1
13.35 8.75 -2.2 0 0 -1
13.35 8.65 -0.1 0 0 1
13.35 8.65 -2.2 0 0 -1
13.35 8.55 -0.1 0 0 1
13.35 8.55 -2.2 0 0 -1
13.35 8.45 -0.1 0 0 1
13.35 8.45 -2.2 0 0 -1
13.35 8.35 -0.1 0 0 1
13.35 8.35 -2.2 0 0 -1
13.35 8.25 -0.1 0 0 1
13.35 8.25 -2.2 0 0 -1
13.35 8.15 -0.1 0 0 1
13.35 8.15 -2.2 0 0 -1
13.35 8.05 -0.1 0 0 1
13.35 8.05 -2.2 0 0 -1
13.35 7.95 -0.1 0 0 1
13.35 7.95 -2.2 0 0 -1
13.35 7.85 -0.1 0 0 1
13.35 7.85 -2.2 0 0 -1
13.35 7.75 -0.1 0 0 1
13.35 7.75 -2.2 0 0 -1
13.35 7.65 -0.1 0 0 1
13.35 7.65 -2.2 0 0 -1
13.35 7.55 -0.1 0 0 1
13.35 7.55 -2.2 0 0 -1
13.35 7.45 -0.1 0 0 1
13.35 7.45 -2.2 0 0 -1
13.35 7.35 -0.1 0 0 1
13.35 7.35 -2.2 0 0 -1
13.35 7.25 -0.1 0 0 1
13.35 7.25 -2.2 0 0 -1
13.35 7.15 -0.1 0 0 1
13.35 7.15 -2.2 0 0 -1
13.35 7.05 -0.1 0 0 1
13.35 7.05 -2.2 0 0 -1
13.35 6.95 -0.1 0 0 1
13.35 6.95 -2.2 0 0 -1
13.35 6.85 -0.1 0 0 1
13.35 6.85 -2.2 0 0 -1
13.35 6.75 -0.1 0 0 1
13.35 6.75 -2.2 0 0 -1
13.35 6.65 -0.1 0 0 1
13.35 6.65 -2.2 0 0 -1
13.35 6.55 -0.1 0 0 1
13.35 6.55 -2.2 0 0 -1
13.35 6.45 -0.1 0 0 1
13.35 6.45 -2.2 0 0 -1
13.35 6.35 -0.1 0 0 1
13.35 6.35 -2.2 0 0 -1
13.35 6.25 -0.1 0 0 1
13.35 6.25 -2.2 0 0 -1
13.35 6.15 -0.1 0 0 1
13.35 6.15 -2.2 0 0 -1
13.35 6.05 -0.1 0 0 1
13.35 6.05 -2.2 0 0 -1
13.35 5.95 -0.1 0 0 1
13.35 5.95 -2.2 0 0 -1
13.35 5.85 -0.1 0 0 1
13.35 5.85 -2.2 0 0 -1
13.35 5.75 -0.1 0 0 1
13.35 5.75 -2.2 0 0 -1
13.35 5.65 -0.1 0 0 1
13.35 5.65 -2.2 0 0 -1
13.35 5.55 -0.1 0 0 1
13.35 5.55 -2.2 0 0 -1
13.35 5.45 -0.1 0 0 1
13.35 5.45 -2.2 0 0 -1
13.35 5.35 -0.1 0 0 1
13.35 5.35 -2.2 0 0 -1
13.35 5.25 -0.1 0 0 1
13.35 5.25 -2.2 0 0 -1
13.35 5.15 -0.1 0 0 1
13.35 5.15 -2.2 0 0 -1
13.35 5.05 -0.1 0 0 1
13.35 5.05 -2.2 0 0 -1
13.35 4.95 -0.1 0 0 1
13.35 4.95 -2.2 0 0 -1
13.35 4.85 -0.1 0 0 1
13.35 4.85 -2.2 0 0 -1
13.35 4.75 -0.1 0 0 1
13.35 4.75 -2.2 0 0 -1
13.35 4.65 -0.1 0 0 1
13.35 4.65 -2.2 0 0 -1
13.35 4.55 -0.1 0 0 1
13.35 4.55 -2.2 0 0 -1
13.35 4.45 -0.1 0 0 1
13.35 4.45 -2.2 0 0 -1
13.35 4.35 -0.1 0 0 1
13.35 4.35 -2.2 0 0 -1
13.35 4.25 -0.1 0 0 1
13.35 4.25 -2.2 0 0 -1
13.35 4.15 -0.1 0 0 1
13.35 4.15 -2.2 0 0 -1
13.35 4.05 -0.1 0 0 1
13.35 4.05 -2.2 0 0 -1
13.35 3.95 -0.1 0 0 1
13.35 3.95 -2.2 0 0 -1
13.35 3.85 -0.1 0 0 1
13.35 3.85 -2.2 0 0 -1
13.35 3.75 -0.1 0 0 1
13.35 3.75 -2.2 0 0 -1
13.35 3.65 -0.1 0 0 1
13.35 3.65 -2.2 0 0 -1
13.35 3.55 -0.1 0 0 1
13.35 3.55 -2.2 0 0 -1
13.35 3.45 -0.1 0 0 1
13.35 3.45 -2.2 0 0 -1
13.35 3.35 -0.1 0 0 1
13.35 3.35 -2.2 0 0 -1
13.35 3.25 -0.1 0 0 1
13.35 3.25 -2.2 0 0 -1
13.35 3.15 -0.1 0 0 1
13.35 3.15 -2.2 0 0 -1
13.35 3.05 -0.1 0 0 1
13.35 3.05 -2.2 0 0 -1
13.35 2.95 -0.1 0 0 1
13.35 2.95 -2.2 0 0 -1
13.35 2.85 -0.1 0 0 1
13.35 2.85 -2.2 0 0 -1
13.35 2.75 -0.1 0 0 1
13.35 2.75 -2.2 0 0 -1
13.35 2.65 -0.1 0 0 1
13.35 2.65 -2.2 0 0 -1
13.35 2.55 -0.1 0 0 1
13.35 2.55 -2.2 0 0 -1
13.35 2.45 -0.1 0 0 1
13.35 2.45 -2.2 0 0 -1
13.35 2.35 -0.1 0 0 1
13.35 2.35 -2.2 0 0 -1
13.35 2.25 -0.1 0 0 1
13.35 2.25 -2.2 0 0 -1
13.35 2.15 -0.1 0 0 1
13.35 2.15 -2.2 0 0 -1
13.35 2.05 -0.1 0 0 1
13.35 2.05 -2.2 0 0 -1
13.35 1.95 -0.1 0 0 1
13.35 1.95 -2.2 0 0 -1
13.35 1.85 -0.1 0 0 1
13.35 1.85 -2.2 0 0 -1
13.35 1.75 -0.1 0 0 1
13.35 1.75 -2.2 0 0 -1
13.35 1.65 -0.1 0 0 1
13.35 1.65 -2.2 0 0 -1
13.35 1.55 -0.1 0 0 1
13.35 1.55 -2.2 0 0 -1
13.35 1.45 -0.1 0 0 1
13.35 1.45 -2.2 0 0 -1
13.35 1.35 -0.1 0 0 1
13.35 1.35 -2.2 0 0 -1
13.35 1.25 -0.1 0 0 1
13.35 1.25 -2.2 0 0 -1
13.35 1.15 -0.1 0 0 1
13.35 1.15 -2.2 0 0 -1
13.35 1.05 -0.1 0 0 1
13.35 1.05 -2.2 0 0 -1
13.35 0.95 -0.1 0 0 1
13.35 0.95 -2.2 0 0 -1
13.35 0.85 -0.1 0 0 1
13.35 0.85 -2.2 0 0 -1
13.35 0.75 -0.1 0 0 1
13.35 0.75 -2.2 0 0 -1
13.35 0.65 -0.1 0 0 1
13.35 0.65 -2.2 0 0 -1
13.35 0.55 -0.1 0 0 1
13.35 0.55 -2.2 0 0 -1
13.35 0.45 -0.1 0 0 1
13.35 0.45 -2.2 0 0 -1
13.35 0.35 -0.1 0 0 1
13.35 0.35 -2.2 0 0 -1
13.35 0.25 -0.1 0 0 1
13.35 0.25 -2.2 0 0 -1
13.35 0.15 -0.1 0 0 1
13.35 0.15 -2.2 0 0 -1
13.35 0.0500001 -0.1 0 0 1
13.35 0.0500001 -2.2 0 0 -1
13.35 -0.0499999 -0.1 0 0 1
13.35 -0.0499999 -2.2 0 0 -1
13.35 -0.15 -0.1 0 0 1
13.35 -0.15 -2.2 0 0 -1
13.35 -0.25 -0.1 0 0 1
13.35 -0.25 -2.2 0 0 -1
13.35 -0.35 -0.1 0 0 1
13.35 -0.35 -2.2 0 0 -1
13.35 -0.45 -0.1 0 0 1
13.35 -0.45 -2.2 0 0 -1
13.35 -0.55 -0.1 0 0 1
13.35 -0.55 -2.2 0 0 -1
13.35 -0.65 -0.1 0 0 1
13.35 -0.65 -2.2 0 0 -1
13.35 -0.75 -0.1 0 0 1
13.35 -0.75 -2.2 0 0 -1
13.35 -0.85 -0.1 0 0 1
13.35 -0.85 -2.2 0 0 -1
13.35 -0.95 -0.1 0 0 1
13.35 -0.95 -2.2 0 0 -1
13.35 -1.05 -0.1 0 0 1
13.35 -1.05 -2.2 0 0 -1
13.35 -1.15 -0.1 0 0 1
13.35 -1.15 -2.2 0 0 -1
13.35 -1.25 -0.1 0 0 1
13.35 -1.25 -2.2 0 0 -1
13.35 -1.35 -0.1 0 0 1
13.35 -1.35 -2.2 0 0 -1
13.35 -1.45 -0.1 0 0 1
13.35 -1.45 -2.2 0 0 -1
13.35 -1.55 -0.1 0 0 1
13.35 -1.55 -2.2 0 0 -1
13.35 -1.65 -0.1 0 0 1
13.35 -1.65 -2.2 0 0 -1
13.35 -1.75 -0.1 0 0 1
13.35 -1.75 -2.2 0 0 -1
13.35 -1.85 -0.1 0 0 1
13.35 -1.85 -2.2 0 0 -1
13.35 -1.95 -0.1 0 0 1
13.35 -1.95 -2.2 0 0 -1
13.35 -2.05 -0.1 0 0 1
13.35 -2.05 -2.2 0 0 -1
13.35 -2.15 -0.1 0 0 1
13.35 -2.15 -2.2 0 0 -1
13.35 -2.25 -0.1 0 0 1
13.35 -2.25 -2.2 0 0 -1
13.35 -2.35 -0.1 0 0 1
13.35 -2.35 -2.2 0 0 -1
13.35 -2.45 -0.1 0 0 1
13.35 -2.45 -2.2 0 0 -1
13.35 -2.55 -0.1 0 0 1
13.35 -2.55 -2.2 0 0 -1
13.35 -2.65 -0.1 0 0 1
13.35 -2.65 -2.2 0 0 -1
13.35 -2.75 -0.1 0 0 1
13.35 -2.75 -2.2 0 0 -1
13.35 -2.85 -0.1 0 0 1
13.35 -2.85 -2.2 0 0 -1
13.35 -2.95 -0.1 0 0 1
13.35 -2.95 -2.2 0 0 -1
13.35 -3.05 -0.1 0 0 1
13.35 -3.05 -2.2 0 0 -1
13.35 -3.15 -0.1 0 0 1
13.35 -3.15 -2.2 0 0 -1
13.35 -3.25 -0.1 0 0 1
13.35 -3.25 -2.2 0 0 -1
13.35 -3.35 -0.1 0 0 1
13.35 -3.35 -2.2 0 0 -1
13.35 -3.45 -0.1 0 0 1
13.35 -3.45 -2.2 0 0 -1
13.35 -3.55 -0.1 0 0 1
13.35 -3.55 -2.2 0 0 -1
13.35 -3.65 -0.1 0 0 1
13.35 -3.65 -2.2 0 0 -1
13.35 -3.75 -0.1 0 0 1
13.35 -3.75 -2.2 0 0 -1
13.35 -3.85 -0.1 0 0 1
13.35 -3.85 -2.2 0 0 -1
13.35 -4 -0.15 0 -1 0
13.35 -3.95 -0.1 0 0 1
13.35 -4 -0.25 0 -1 0
13.35 -4 -0.35 0 -1 0
13.35 -4 -0.45 0 -1 0
13.35 -4 -0.55 0 -1 0
13.35 -4 -0.65 0 -1 0
13.35 -4 -0.75 0 -1 0
13.35 -4 -0.85 0 -1 0
13.35 -4 -0.95 0 -1 0
13.35 -4 -1.05 0 -1 0
13.35 -4 -1.15 0 -1 0
13.35 -4 -1.25 0 -1 0
13.35 -4 -1.35 0 -1 0
13.35 -4 -1.45 0 -1 0
13.35 -4 -1.55 0 -1 0
13.35 -4 -1.65 0 -1 0
13.35 -4 -1.75 0 -1 0
13.35 -4 -1.85 0 -1 0
13.35 -4 -1.95 0 -1 0
13.35 -4 -2.05 0 -1 0
13.35 -4 -2.15 0 -1 0
13.35 -3.95 -2.2 0 0 -1
13.25 14.9 1.25 0 1 0
13.25 14.85 1.3 0 0 1
13.25 14.9 1.15 0 1 0
13.25 14.9 1.05 0 1 0
13.25 14.9 0.95 0 1 0
13.25 14.9 0.85 0 1 0
13.25 14.9 0.75 0 1 0
13.25 14.9 0.65 0 1 0
13.25 14.9 0.55 0 1 0
13.25 14.9 0.45 0 1 0
13.25 14.9 0.35 0 1 0
13.25 14.9 0.25 0 1 0
13.25 14.9 0.15 0 1 0
13.25 14.9 0.05 0 1 0
13.25 14.9 -0.05 0 1 0
13.25 14.9 -0.15 0 1 0
13.25 14.9 -0.25 0 1 0
13.25 14.9 -0.35 0 1 0
13.25 14.9 -0.45 0 1 0
13.25 14.9 -0.55 0 1 0
13.25 14.9 -0.65 0 1 0
13.25 14.9 -0.75 0 1 0
13.25 14.9 -0.85 0 1 0
13.25 14.9 -0.95 0 1 0
13.25 14.9 -1.05 0 1 0
13.25 14.9 -1.15 0 1 0
13.25 14.9 -1.25 0 1 0
13.25 14.9 -1.35 0 1 0
13.25 14.9 -1.45 0 1 0
13.25 14.9 -1.55 0 1 0
13.25 14.9 -1.65 0 1 0
13.25 14.9 -1.75 0 1 0
13.25 14.9 -1.85 0 1 0
13.25 14.9 -1.95 0 1 0
13.25 14.9 -2.05 0 1 0
13.25 14.9 -2.15 0 1 0
13.25 14.85 -2.2 0 0 -1
13.25 14.75 1.3 0 0 1
13.25 14.75 -2.2 0 0 -1
13.25 14.6 1.25 0 -1 0
13.25 14.65 1.3 0 0 1
13.25 14.65 -2.2 0 0 -1
13.25 14.5 1.15 0 -1 0
13.25 14.55 1.2 0 0 1
13.25 14.55 -2.2 0 0 -1
13.25 14.4 1.05 0 -1 0
13.25 14.45 1.1 0 0 1
13.25 14.45 -2.2 0 0 -1
13.25 14.3 0.95 0 -1 0
13.25 14.35 1 0 0 1
13.25 14.35 -2.2 0 0 -1
13.25 14.2 0.85 0 -1 0
13.25 14.25 0.9 0 0 1
13.25 14.25 -2.2 0 0 -1
13.25 14.15 0.8 0 0 1
13.25 14.15 -2.2 0 0 -1
13.25 14 0.75 0 -1 0
13.25 14.05 0.8 0 0 1
13.25 14.05 -2.2 0 0 -1
13.25 13.9 0.65 0 -1 0
13.25 13.95 0.7 0 0 1
13.25 13.95 -2.2 0 0 -1
13.25 13.8 0.55 0 -1 0
13.25 13.85 0.6 0 0 1
13.25 13.85 -2.2 0 0 -1
13.25 13.7 0.45 0 -1 0
13.25 13.75 0.5 0 0 1
13.25 13.75 -2.2 0 0 -1
13.25 13.65 0.4 0 0 1
13.25 13.65 -2.2 0 0 -1
13.25 13.5 0.35 0 -1 0
13.25 13.55 0.4 0 0 1
13.25 13.55 -2.2 0 0 -1
13.25 13.4 0.25 0 -1 0
13.25 13.45 0.3 0 0 1
13.25 13.45 -2.2 0 0 -1
13.25 13.3 0.15 0 -1 0
13.25 13.35 0.2 0 0 1
13.25 13.35 -2.2 0 0 -1
13.25 13.2 0.05 0 -1 0
13.25 13.25 0.1 0 0 1
13.25 13.25 -2.2 0 0 -1
13.25 13.1 -0.05 0 -1 0
13.25 13.15 4.47035e-08 0 0 1
13.25 13.15 -2.2 0 0 -1
13.25 13.05 -0.1 0 0 1
13.25 13.05 -2.2 0 0 -1
13.25 12.95 -0.1 0 0 1
13.25 12.95 -2.2 0 0 -1
13.25 12.85 -0.1 0 0 1
13.25 12.85 -2.2 0 0 -1
13.25 12.75 -0.1 0 0 1
13.25 12.75 -2.2 0 0 -1
13.25 12.65 -0.1 0 0 1
13.25 12.65 -2.2 0 0 -1
13.25 12.55 -0.1 0 0 1
13.25 12.55 -2.2 0 0 -1
13.25 12.45 -0.1 0 0 1
13.25 12.45 -2.2 0 0 -1
13.25 12.35 -0.1 0 0 1
13.25 12.35 -2.2 0 0 -1
13.25 12.25 -0.1 0 0 1
13.25 12.25 -2.2 0 0 -1
13.25 12.15 -0.1 0 0 1
13.25 12.15 -2.2 0 0 -1
13.25 12.05 -0.1 0 0 1
13.25 12.05 -2.2 0 0 -1
13.25 11.95 -0.1 0 0 1
13.25 11.95 -2.2 0 0 -1
13.25 11.85 -0.1 0 0 1
13.25 11.85 -2.2 0 0 -1
13.25 11.75 -0.1 0 0 1
13.25 11.75 -2.2 0 0 -1
13.25 11.65 -0.1 0 0 1
13.25 11.65 -2.2 0 0 -1
13.25 11.55 -0.1 0 0 1
13.25 11.55 -2.2 0 0 -1
13.25 11.45 -0.1 0 0 1
13.25 11.45 -2.2 0 0 -1
13.25 11.35 -0.1 0 0 1
13.25 11.35 -2.2 0 0 -1
13.25 11.25 -0.1 0 0 1
13.25 11.25 -2.2 0 0 -1
13.25 11.15 -0.1 0 0 1
13.25 11.15 -2.2 0 0 -1
13.25 11.05 -0.1 0 0 1
13.25 11.05 -2.2 0 0 -1
13.25 10.95 -0.1 0 0 1
13.25 10.95 -2.2 0 0 -1
13.25 10.85 -0.1 0 0 1
13.25 10.85 -2.2 0 0 -1
13.25 10.75 -0.1 0 0 1
13.25 10.75 -2.2 0 0 -1
13.25 10.65 -0.1 0 0 1
13.25 10.65 -2.2 0 0 -1
13.25 10.55 -0.1 0 0 1
13.25 10.55 -2.2 0 0 -1
13.25 10.45 -0.1 0 0 1
13.25 10.45 -2.2 0 0 -1
13.25 10.35 -0.1 0 0 1
13.25 10.35 -2.2 0 0 -1
13.25 10.25 -0.1 0 0 1
13.25 10.25 -2.2 0 0 -1
13.25 10.15 -0.1 0 0 1
13.25 10.15 -2.2 0 0 -1
13.25 10.05 -0.1 0 0 1
13.25 10.05 -2.2 0 0 -1
13.25 9.95 -0.1 0 0 1
13.25 9.95 -2.2 0 0 -1
13.25 9.85 -0.1 0 0 1
13.25 9.85 -2.2 0 0 -1
13.25 9.75 -0.1 0 0 1
13.25 9.75 -2.2 0 0 -1
13.25 9.65 -0.1 0 0 1
13.25 9.65 -2.2 0 0 -1
13.25 9.55 -0.1 0 0 1
13.25 9.55 -2.2 0 0 -1
13.25 9.45 -0.1 0 0 1
13.25 9.45 -2.2 0 0 -1
13.25 9.35 -0.1 0 0 1
13.25 9.35 -2.2 0 0 -1
13.25 9.25 -0.1 0 0 1
13.25 9.25 -2.2 0 0 -1
13.25 9.15 -0.1 0 0 1
13.25 9.15 -2.2 0 0 -1
13.25 9.05 -0.1 0 0 1
13.25 9.05 -2.2 0 0 -1
13.25 8.95 -0.1 0 0 1
13.25 8.95 -2.2 0 0 -1
13.25 8.85 -0.1 0 0 1
13.25 8.85 -2.2 0 0 -1
13.25 8.75 -0.1 0 0 1
13.25 8.75 -2.2 0 0 -1
13.25 8.65 -0.1 0 0 1
13.25 8.65 -2.2 0 0 -1
13.25 8.55 -0.1 0 0 1
13.25 8.55 -2.2 0 0 -1
13.25 8.45 -0.1 0 0 1
13.25 8.45 -2.2 0 0 -1
13.25 8.35 -0.1 0 0 1
13.25 8.35 -2.2 0 0 -1
13.25 8.25 -0.1 0 0 1
13.25 8.25 -2.2 0 0 -1
13.25 8.15 -0.1 0 0 1
13.25 8.15 -2.2 0 0 -1
13.25 8.05 -0.1 0 0 1
13.25 8.05 -2.2 0 0 -1
13.25 7.95 -0.1 0 0 1
13.25 7.95 -2.2 0 0 -1
13.25 7.85 -0.1 0 0 1
13.25 7.85 -2.2 0 0 -1
13.25 7.75 -0.1 0 0 1
13.25 7.75 -2.2 0 0 -1
13.25 7.65 -0.1 0 0 1
13.25 7.65 -2.2 0 0 -1
13.25 7.55 -0.1 0 0 1
13.25 7.55 -2.2 0 0 -1
13.25 7.45 -0.1 0 0 1
13.25 7.45 -2.2 0 0 -1
13.25 7.35 -0.1 0 0 1
13.25 7.35 -2.2 0 0 -1
13.25 7.25 -0.1 0 0 1
13.25 7.25 -2.2 0 0 -1
13.25 7.15 -0.1 0 0 1
13.25 7.15 -2.2 0 0 -1
13.25 7.05 -0.1 0 0 1
13.25 7.05 -2.2 0 0 -1
13.25 6.95 -0.1 0 0 1
13.25 6.95 -2.2 0 0 -1
13.25 6.85 -0.1 0 0 1
13.25 6.85 -2.2 0 0 -1
13.25 6.75 -0.1 0 0 1
13.25 6.75 -2.2 0 0 -1
13.25 6.65 -0.1 0 0 1
13.25 6.65 -2.2 0 0 -1
13.25 6.55 -0.1 0 0 1
13.25 6.55 -2.2 0 0 -1
13.25 6.45 -0.1 0 0 1
13.25 6.45 -2.2 0 0 -1
13.25 6.35 -0.1 0 0 1
13.25 6.35 -2.2 0 0 -1
13.25 6.25 -0.1 0 0 1
13.25 6.25 -2.2 0 0 -1
13.25 6.15 -0.1 0 0 1
13.25 6.15 -2.2 0 0 -1
13.25 6.05 -0.1 0 0 1
13.25 6.05 -2.2 0 0 -1
13.25 5.95 -0.1 0 0 1
13.25 5.95 -2.2 0 0 -1
13.25 5.85 -0.1 0 0 1
13.25 5.85 -2.2 0 0 -1
13.25 5.75 -0.1 0 0 1
13.25 5.75 -2.2 0 0 -1
13.25 5.65 -0.1 0 0 1
13.25 5.65 -2.2 0 0 -1
13.25 5.55 -0.1 0 0 1
13.25 5.55 -2.2 0 0 -1
13.25 5.45 -0.1 0 0 1
13.25 5.45 -2.2 0 0 -1
13.25 5.35 -0.1 0 0 1
13.25 5.35 -2.2 0 0 -1
13.25 5.25 -0.1 0 0 1
13.25 5.25 -2.2 0 0 -1
13.25 5.15 -0.1 0 0 1
13.25 5.15 -2.2 0 0 -1
13.25 5.05 -0.1 0 0 1
13.25 5.05 -2.2 0 0 -1
13.25 4.95 -0.1 0 0 1
13.25 4.95 -2.2 0 0 -1
13.25 4.85 -0.1 0 0 1
13.25 4.85 -2.2 0 0 -1
13.25 4.75 -0.1 0 0 1
13.25 4.75 -2.2 0 0 -1
13.25 4.65 -0.1 0 0 1
13.25 4.65 -2.2 0 0 -1
13.25 4.55 -0.1 0 0 1
13.25 4.55 -2.2 0 0 -1
13.25 4.45 -0.1 0 0 1
13.25 4.45 -2.2 0 0 -1
13.25 4.35 -0.1 0 0 1
13.25 4.35 -2.2 0 0 -1
13.25 4.25 -0.1 0 0 1
13.25 4.25 -2.2 0 0 -1
13.25 4.15 -0.1 0 0 1
13.25 4.15 -2.2 0 0 -1
13.25 4.05 -0.1 0 0 1
13.25 4.05 -2.2 0 0 -1
13.25 3.95 -0.1 0 0 1
13.25 3.95 -2.2 0 0 -1
13.25 3.85 -0.1 0 0 1
13.25 3.85 -2.2 0 0 -1
13.25 3.75 -0.1 0 0 1
13.25 3.75 -2.2 0 0 -1
13.25 3.65 -0.1 0 0 1
13.25 3.65 -2.2 0 0 -1
13.25 3.55 -0.1 0 0 1
13.25 3.55 -2.2 0 0 -1
13.25 3.45 -0.1 0 0 1
13.25 3.45 -2.2 0 0 -1
13.25 3.35 -0.1 0 0 1
13.25 3.35 -2.2 0 0 -1
13.25 3.25 -0.1 0 0 1
13.25 3.25 -2.2 0 0 -1
13.25 3.15 -0.1 0 0 1
13.25 3.15 -2.2 0 0 -1
13.25 3.05 -0.1 0 0 1
13.25 3.05 -2.2 0 0 -1
13.25 2.95 -0.1 0 0 1
13.25 2.95 -2.2 0 0 -1
13.25 2.85 -0.1 0 0 1
13.25 2.85 -2.2 0 0 -1
13.25 2.75 -0.1 0 0 1
13.25 2.75 -2.2 0 0 -1
13.25 2.65 -0.1 0 0 1
13.25 2.65 -2.2 0 0 -1
13.25 2.55 -0.1 0 0 1
13.25 2.55 -2.2 0 0 -1
13.25 2.45 -0.1 0 0 1
13.25 2.45 -2.2 0 0 -1
13.25 2.35 -0.1 0 0 1
13.25 2.35 -2.2 0 0 -1
13.25 2.25 -0.1 0 0 1
13.25 2.25 -2.2 0 0 -1
13.25 2.15 -0.1 0 0 1
13.25 2.15 -2.2 0 0 -1
13.25 2.05 -0.1 0 0 1
13.25 2.05 -2.2 0 0 -1
13.25 1.95 -0.1 0 0 1
13.25 1.95 -2.2 0 0 -1
13.25 1.85 -0.1 0 0 1
13.25 1.85 -2.2 0 0 -1
13.25 1.75 -0.1 0 0 1
13.25 1.75 -2.2 0 0 -1
13.25 1.65 -0.1 0 0 1
13.25 1.65 -2.2 0 0 -1
13.25 1.55 -0.1 0 0 1
13.25 1.55 -2.2 0 0 -1
13.25 1.45 -0.1 0 0 1
13.25 1.45 -2.2 0 0 -1
13.25 1.35 -0.1 0 0 1
13.25 1.35 -2.2 0 0 -1
13.25 1.25 -0.1 0 0 1
13.25 1.25 -2.2 0 0 -1
13.25 1.15 -0.1 0 0 1
13.25 1.15 -2.2 0 0 -1
13.25 1.05 -0.1 0 0 1
13.25 1.05 -2.2 0 0 -1
13.25 0.95 -0.1 0 0 1
13.25 0.95 -2.2 0 0 -1
13.25 0.85 -0.1 0 0 1
13.25 0.85 -2.2 0 0 -1
13.25 0.75 -0.1 0 0 1
13.25 0.75 -2.2 0 0 -1
13.25 0.65 -0.1 0 0 1
13.25 0.65 -2.2 0 0 -1
13.25 0.55 -0.1 0 0 1
13.25 0.55 -2.2 0 0 -1
13.25 0.45 -0.1 0 0 1
13.25 0.45 -2.2 0 0 -1
13.25 0.35 -0.1 0 0 1
13.25 0.35 -2.2 0 0 -1
13.25 0.25 -0.1 0 0 1
13.25 0.25 -2.2 0 0 -1
13.25 0.15 -0.1 0 0 1
13.25 0.15 -2.2 0 0 -1
13.25 0.0500001 -0.1 0 0 1
13.25 0.0500001 -2.2 0 0 -1
13.25 -0.0499999 -0.1 0 0 1
13.25 -0.0499999 -2.2 0 0 -1
13.25 -0.15 -0.1 0 0 1
13.25 -0.15 -2.2 0 0 -1
13.25 -0.25 -0.1 0 0 1
13.25 -0.25 -2.2 0 0 -1
13.25 -0.35 -0.1 0 0 1
13.25 -0.35 -2.2 0 0 -1
13.25 -0.45 -0.1 0 0 1
13.25 -0.45 -2.2 0 0 -1
13.25 -0.55 -0.1 0 0 1
13.25 -0.55 -2.2 0 0 -1
13.25 -0.65 -0.1 0 0 1
13.25 -0.65 -2.2 0 0 -1
13.25 -0.75 -0.1 0 0 1
13.25 -0.75 -2.2 0 0 -1
13.25 -0.85 -0.1 0 0 1
13.25 -0.85 -2.2 0 0 -1
13.25 -0.95 -0.1 0 0 1
13.25 -0.95 -2.2 0 0 -1
13.25 -1.05 -0.1 0 0 1
13.25 -1.05 -2.2 0 0 -1
13.25 -1.15 -0.1 0 0 1
13.25 -1.15 -2.2 0 0 -1
13.25 -1.25 -0.1 0 0 1
13.25 -1.25 -2.2 0 0 -1
13.25 -1.35 -0.1 0 0 1
13.25 -1.35 -2.2 0 0 -1
13.25 -1.45 -0.1 0 0 1
13.25 -1.45 -2.2 0 0 -1
13.25 -1.55 -0.1 0 0 1
13.25 -1.55 -2.2 0 0 -1
13.25 -1.65 -0.1 0 0 1
13.25 -1.65 -2.2 0 0 -1
13.25 -1.75 -0.1 0 0 1
13.25 -1.75 -2.2 0 0 -1
13.25 -1.85 -0.1 0 0 1
13.25 -1.85 -2.2 0 0 -1
13.25 -1.95 -0.1 0 0 1
13.25 -1.95 -2.2 0 0 -1
13.25 -2.05 -0.1 0 0 1
13.25 -2.05 -2.2 0 0 -1
13.25 -2.15 -0.1 0 0 1
13.25 -2.15 -2.2 0 0 -1
13.25 -2.25 -0.1 0 0 1
13.25 -2.25 -2.2 0 0 -1
13.25 -2.35 -0.1 0 0 1
13.25 -2.35 -2.2 0 0 -1
13.25 -2.45 -0.1 0 0 1
13.25 -2.45 -2.2 0 0 -1
13.25 -2.55 -0.1 0 0 1
13.25 -2.55 -2.2 0 0 -1
13.25 -2.65 -0.1 0 0 1
13.25 -2.65 -2.2 0 0 -1
13.25 -2.75 -0.1 0 0 1
13.25 -2.75 -2.2 0 0 -1
13.25 -2.85 -0.1 0 0 1
13.25 -2.85 -2.2 0 0 -1
13.25 -2.95 -0.1 0 0 1
13.25 -2.95 -2.2 0 0 -1
13.25 -3.05 -0.1 0 0 1
13.25 -3.05 -2.2 0 0 -1
13.25 -3.15 -0.1 0 0 1
13.25 -3.15 -2.2 0 0 -1
13.25 -3.25 -0.1 0 0 1
13.25 -3.25 -2.2 0 0 -1
13.25 -3.35 -0.1 0 0 1
13.25 -3.35 -2.2 0 0 -1
13.25 -3.45 -0.1 0 0 1
13.25 -3.45 -2.2 0 0 -1
13.25 -3.55 -0.1 0 0 1
13.25 -3.55 -2.2 0 0 -1
13.25 -3.65 -0.1 0 0 1
13.25 -3.65 -2.2 0 0 -1
13.25 -3.75 -0.1 0 0 1
13.25 -3.75 -2.2 0 0 -1
13.25 -3.85 -0.1 0 0 1
13.25 -3.85 -2.2 0 0 -1
13.25 -4 -0.15 0 -1 0
13.25 -3.95 -0.1 0 0 1
13.25 -4 -0.25 0 -1 0
13.25 -4 -0.35 0 -1 0
13.25 -4 -0.45 0 -1 0
13.25 -4 -0.55 0 -1 0
13.25 -4 -0.65 0 -1 0
13.25 -4 -0.75 0 -1 0
13.25 -4 -0.85 0 -1 0
13.25 -4 -0.95 0 -1 0
13.25 -4 -1.05 0 -1 0
13.25 -4 -1.15 0 -1 0
13.25 -4 -1.25 0 -1 0
13.25 -4 -1.35 0 -1 0
13.25 -4 -1.45 0 -1 0
13.25 -4 -1.55 0 -1 0
13.25 -4 -1.65 0 -1 0
13.25 -4 -1.75 0 -1 0
13.25 -4 -1.85 0 -1 0
13.25 -4 -1.95 0 -1 0
13.25 -4 -2.05 0 -1 0
13.25 -4 -2.15 0 -1 0
13.25 -3.95 -2.2 0 0 -1
13.15 14.9 1.25 0 1 0
13.15 14.85 1.3 0 0 1
13.15 14.9 1.15 0 1 0
13.15 14.9 1.05 0 1 0
13.15 14.9 0.95 0 1 0
13.15 14.9 0.85 0 1 0
13.15 14.9 0.75 0 1 0
13.15 14.9 0.65 0 1 0
13.15 14.9 0.55 0 1 0
13.15 14.9 0.45 0 1 0
13.15 14.9 0.35 0 1 0
13.15 14.9 0.25 0 1 0
13.15 14.9 0.15 0 1 0
13.15 14.9 0.05 0 1 0
13.15 14.9 -0.05 0 1 0
13.15 14.9 -0.15 0 1 0
13.15 14.9 -0.25 0 1 0
13.15 14.9 -0.35 0 1 0
13.15 14.9 -0.45 0 1 0
13.15 14.9 -0.55 0 1 0
13.15 14.9 -0.65 0 1 0
13.15 14.9 -0.75 0 1 0
13.15 14.9 -0.85 0 1 0
13.15 14.9 -0.95 0 1 0
13.15 14.9 -1.05 0 1 0
13.15 14.9 -1.15 0 1 0
13.15 14.9 -1.25 0 1 0
13.15 14.9 -1.35 0 1 0
13.15 14.9 -1.45 0 1 0
13.15 14.9 -1.55 0 1 0
13.15 14.9 -1.65 0 1 0
13.15 14.9 -1.75 0 1 0
13.15 14.9 -1.85 0 1 0
13.15 14.9 -1.95 0 1 0
13.15 14.9 -2.05 0 1 0
13.15 14.9 -2.15 0 1 0
13.15 14.85 -2.2 0 0 -1
13.15 14.75 1.3 0 0 1
13.15 14.75 -2.2 0 0 -1
13.15 14.6 1.25 0 -1 0
13.15 14.65 1.3 0 0 1
13.15 14.65 -2.2 0 0 -1
13.15 14.5 1.15 0 -1 0
13.15 14.55 1.2 0 0 1
13.15 14.55 -2.2 0 0 -1
13.15 14.4 1.05 0 -1 0
13.15 14.45 1.1 0 0 1
13.15 14.45 -2.2 0 0 -1
13.15 14.3 0.95 0 -1 0
13.15 14.35 1 0 0 1
13.15 14.35 -2.2 0 0 -1
13.15 14.2 0.85 0 -1 0
13.15 14.25 0.9 0 0 1
13.15 14.25 -2.2 0 0 -1
13.15 14.15 0.8 0 0 1
13.15 14.15 -2.2 0 0 -1
13.15 14 0.75 0 -1 0
13.15 14.05 0.8 0 0 1
13.15 14.05 -2.2 0 0 -1
13.15 13.9 0.65 0 -1 0
13.15 13.95 0.7 0 0 1
13.15 13.95 -2.2 0 0 -1
13.15 13.8 0.55 0 -1 0
13.15 13.85 0.6 0 0 1
13.15 13.85 -2.2 0 0 -1
13.15 13.7 0.45 0 -1 0
13.15 13.75 0.5 0 0 1
13.15 13.75 -2.2 0 0 -1
13.15 13.65 0.4 0 0 1
13.15 13.65 -2.2 0 0 -1
13.15 13.5 0.35 0 -1 0
13.15 13.55 0.4 0 0 1
13.15 13.55 -2.2 0 0 -1
13.15 13.4 0.25 0 -1 0
13.15 13.45 0.3 0 0 1
13.15 13.45 -2.2 0 0 -1
13.15 13.3 0.15 0 -1 0
13.15 13.35 0.2 0 0 1
13.15 13.35 -2.2 0 0 -1
13.15 13.2 0.05 0 -1 0
13.15 13.25 0.1 0 0 1
13.15 13.25 -2.2 0 0 -1
13.15 13.1 -0.05 0 -1 0
13.15 13.15 4.47035e-08 0 0 1
13.15 13.15 -2.2 0 0 -1
13.15 13.05 -0.1 0 0 1
13.15 13.05 -2.2 0 0 -1
13.15 12.95 -0.1 0 0 1
13.15 12.95 -2.2 0 0 -1
13.15 12.85 -0.1 0 0 1
13.15 12.85 -2.2 0 0 -1
13.15 12.75 -0.1 0 0 1
13.15 12.75 -2.2 0 0 -1
13.15 12.65 -0.1 0 0 1
13.15 12.65 -2.2 0 0 -1
13.15 12.55 -0.1 0 0 1
13.15 12.55 -2.2 0 0 -1
13.15 12.45 -0.1 0 0 1
13.15 12.45 -2.2 0 0 -1
13.15 12.35 -0.1 0 0 1
13.15 12.35 -2.2 0 0 -1
13.15 12.25 -0.1 0 0 1
13.15 12.25 -2.2 0 0 -1
13.15 12.15 -0.1 0 0 1
13.15 12.15 -2.2 0 0 -1
13.15 12.05 -0.1 0 0 1
13.15 12.05 -2.2 0 0 -1
13.15 11.95 -0.1 0 0 1
13.15 11.95 -2.2 0 0 -1
13.15 11.85 -0.1 0 0 1
13.15 11.85 -2.2 0 0 -1
13.15 11.75 -0.1 0 0 1
13.15 11.75 -2.2 0 0 -1
13.15 11.65 -0.1 0 0 1
13.15 11.65 -2.2 0 0 -1
13.15 11.55 -0.1 0 0 1
13.15 11.55 -2.2 0 0 -1
13.15 11.45 -0.1 0 0 1
13.15 11.45 -2.2 0 0 -1
13.15 11.35 -0.1 0 0 1
13.15 11.35 -2.2 0 0 -1
13.15 11.25 -0.1 0 0 1
13.15 11.25 -2.2 0 0 -1
13.15 11.15 -0.1 0 0 1
13.15 11.15 -2.2 0 0 -1
13.15 11.05 -0.1 0 0 1
13.15 11.05 -2.2 0 0 -1
13.15 10.95 -0.1 0 0 1
13.15 10.95 -2.2 0 0 -1
13.15 10.85 -0.1 0 0 1
13.15 10.85 -2.2 0 0 -1
13.15 10.75 -0.1 0 0 1
13.15 10.75 -2.2 0 0 -1
13.15 10.65 -0.1 0 0 1
13.15 10.65 -2.2 0 0 -1
13.15 10.55 -0.1 0 0 1
13.15 10.55 -2.2 0 0 -1
13.15 10.45 -0.1 0 0 1
13.15 10.45 -2.2 0 0 -1
13.15 10.35 -0.1 0 0 1
13.15 10.35 -2.2 0 0 -1
13.15 10.25 -0.1 0 0 1
13.15 10.25 -2.2 0 0 -1
13.15 10.15 -0.1 0 0 1
13.15 10.15 -2.2 0 0 -1
13.15 10.05 -0.1 0 0 1
13.15 10.05 -2.2 0 0 -1
13.15 9.95 -0.1 0 0 1
13.15 9.95 -2.2 0 0 -1
13.15 9.85 -0.1 0 0 1
13.15 9.85 -2.2 0 0 -1
13.15 9.75 -0.1 0 0 1
13.15 9.75 -2.2 0 0 -1
13.15 9.65 -0.1 0 0 1
13.15 9.65 -2.2 0 0 -1
13.15 9.55 -0.1 0 0 1
13.15 9.55 -2.2 0 0 -1
13.15 9.45 -0.1 0 0 1
13.15 9.45 -2.2 0 0 -1
13.15 9.35 -0.1 0 0 1
13.15 9.35 -2.2 0 0 -1
13.15 9.25 -0.1 0 0 1
13.15 9.25 -2.2 0 0 -1
13.15 9.15 -0.1 0 0 1
13.15 9.15 -2.2 0 0 -1
13.15 9.05 -0.1 0 0 1
13.15 9.05 -2.2 0 0 -1
13.15 8.95 -0.1 0 0 1
13.15 8.95 -2.2 0 0 -1
13.15 8.85 -0.1 0 0 1
13.15 8.85 -2.2 0 0 -1
13.15 8.75 -0.1 0 0 1
13.15 8.75 -2.2 0 0 -1
13.15 8.65 -0.1 0 0 1
13.15 8.65 -2.2 0 0 -1
13.15 8.55 -0.1 0 0 1
13.15 8.55 -2.2 0 0 -1
13.15 8.45 -0.1 0 0 1
13.15 8.45 -2.2 0 0 -1
13.15 8.35 -0.1 0 0 1
13.15 8.35 -2.2 0 0 -1
13.15 8.25 -0.1 0 0 1
13.15 8.25 -2.2 0 0 -1
13.15 8.15 -0.1 0 0 1
13.15 8.15 -2.2 0 0 -1
13.15 8.05 -0.1 0 0 1
13.15 8.05 -2.2 0 0 -1
13.15 7.95 -0.1 0 0 1
13.15 7.95 -2.2 0 0 -1
13.15 7.85 -0.1 0 0 1
13.15 7.85 -2.2 0 0 -1
13.15 7.75 -0.1 0 0 1
13.15 7.75 -2.2 0 0 -1
13.15 7.65 -0.1 0 0 1
13.15 7.65 -2.2 0 0 -1
13.15 7.55 -0.1 0 0 1
13.15 7.55 -2.2 0 0 -1
13.15 7.45 -0.1 0 0 1
13.15 7.45 -2.2 0 0 -1
13.15 7.35 -0.1 0 0 1
13.15 7.35 -2.2 0 0 -1
13.15 7.25 -0.1 0 0 1
13.15 7.25 -2.2 0 0 -1
13.15 7.15 -0.1 0 0 1
13.15 7.15 -2.2 0 0 -1
13.15 7.05 -0.1 0 0 1
13.15 7.05 -2.2 0 0 -1
13.15 6.95 -0.1 0 0 1
13.15 6.95 -2.2 0 0 -1
13.15 6.85 -0.1 0 0 1
13.15 6.85 -2.2 0 0 -1
13.15 6.75 -0.1 0 0 1
13.15 6.75 -2.2 0 0 -1
13.15 6.65 -0.1 0 0 1
13.15 6.65 -2.2 0 0 -1
13.15 6.55 -0.1 0 0 1
13.15 6.55 -2.2 0 0 -1
13.15 6.45 -0.1 0 0 1
13.15 6.45 -2.2 0 0 -1
13.15 6.35 -0.1 0 0 1
13.15 6.35 -2.2 0 0 -1
13.15 6.25 -0.1 0 0 1
13.15 6.25 -2.2 0 0 -1
13.15 6.15 -0.1 0 0 1
13.15 6.15 -2.2 0 0 -1
13.15 6.05 -0.1 0 0 1
13.15 6.05 -2.2 0 0 -1
13.15 5.95 -0.1 0 0 1
13.15 5.95 -2.2 0 0 -1
13.15 5.85 -0.1 0 0 1
13.15 5.85 -2.2 0 0 -1
13.15 5.75 -0.1 0 0 1
13.15 5.75 -2.2 0 0 -1
13.15 5.65 -0.1 0 0 1
13.15 5.65 -2.2 0 0 -1
13.15 5.55 -0.1 0 0 1
13.15 5.55 -2.2 0 0 -1
13.15 5.45 -0.1 0 0 1
13.15 5.45 -2.2 0 0 -1
13.15 5.35 -0.1 0 0 1
13.15 5.35 -2.2 0 0 -1
13.15 5.25 -0.1 0 0 1
13.15 5.25 -2.2 0 0 -1
13.15 5.15 -0.1 0 0 1
13.15 5.15 -2.2 0 0 -1
13.15 5.05 -0.1 0 0 1
13.15 5.05 -2.2 0 0 -1
13.15 4.95 -0.1 0 0 1
13.15 4.95 -2.2 0 0 -1
13.15 4.85 -0.1 0 0 1
13.15 4.85 -2.2 0 0 -1
13.15 4.75 -0.1 0 0 1
13.15 4.75 -2.2 0 0 -1
13.15 4.65 -0.1 0 0 1
13.15 4.65 -2.2 0 0 -1
13.15 4.55 -0.1 0 0 1
13.15 4.55 -2.2 0 0 -1
13.15 4.45 -0.1 0 0 1
13.15 4.45 -2.2 0 0 -1
13.15 4.35 -0.1 0 0 1
13.15 4.35 -2.2 0 0 -1
13.15 4.25 -0.1 0 0 1
13.15 4.25 -2.2 0 0 -1
13.15 4.15 -0.1 0 0 1
13.15 4.15 -2.2 0 0 -1
13.15 4.05 -0.1 0 0 1
13.15 4.05 -2.2 0 0 -1
13.15 3.95 -0.1 0 0 1
13.15 3.95 -2.2 0 0 -1
13.15 3.85 -0.1 0 0 1
13.15 3.85 -2.2 0 0 -1
13.15 3.75 -0.1 0 0 1
13.15 3.75 -2.2 0 0 -1
13.15 3.65 -0.1 0 0 1
13.15 3.65 -2.2 0 0 -1
13.15 3.55 -0.1 0 0 1
13.15 3.55 -2.2 0 0 -1
13.15 3.45 -0.1 0 0 1
13.15 3.45 -2.2 0 0 -1
13.15 3.35 -0.1 0 0 1
13.15 3.35 -2.2 0 0 -1
13.15 3.25 -0.1 0 0 1
13.15 3.25 -2.2 0 0 -1
13.15 3.15 -0.1 0 0 1
13.15 3.15 -2.2 0 0 -1
13.15 3.05 -0.1 0 0 1
13.15 3.05 -2.2 0 0 -1
13.15 2.95 -0.1 0 0 1
13.15 2.95 -2.2 0 0 -1
13.15 2.85 -0.1 0 0 1
13.15 2.85 -2.2 0 0 -1
13.15 2.75 -0.1 0 0 1
13.15 2.75 -2.2 0 0 -1
13.15 2.65 -0.1 0 0 1
13.15 2.65 -2.2 0 0 -1
13.15 2.55 -0.1 0 0 1
13.15 2.55 -2.2 0 0 -1
13.15 2.45 -0.1 0 0 1
13.15 2.45 -2.2 0 0 -1
13.15 2.35 -0.1 0 0 1
13.15 2.35 -2.2 0 0 -1
