8.15 14.35 -2.1 0 0 -1
8.15 13 -0.75 0 -1 0
8.05 14.45 -2.1 0 0 -1
8.05 13 -0.65 0 -1 0
7.95 14.55 -2.1 0 0 -1
7.95 13 -0.55 0 -1 0
7.85 14.65 -2.1 0 0 -1
7.85 13 -0.45 0 -1 0
7.75 14.8 -2.05 0 1 0
7.75 14.75 -2.1 0 0 -1
7.75 13 -0.35 0 -1 0
7.65 14.8 -1.95 0 1 0
7.65 13 -0.25 0 -1 0
7.65 13.05 -0.2 0 0 1
7.55 14.8 -1.85 0 1 0
7.45 14.8 -1.75 0 1 0
7.45 13.1 -0.15 0 -1 0
7.45 13.15 -0.1 0 0 1
7.35 14.8 -1.65 0 1 0
7.25 14.8 -1.55 0 1 0
7.25 13.2 -0.05 0 -1 0
7.25 13.25 4.47035e-08 0 0 1
7.15 14.8 -1.45 0 1 0
7.05 14.8 -1.35 0 1 0
7.05 13.3 0.05 0 -1 0
7.05 13.35 0.1 0 0 1
6.95 14.8 -1.25 0 1 0
6.85 14.8 -1.15 0 1 0
6.85 13.4 0.15 0 -1 0
6.85 13.45 0.2 0 0 1
6.75 14.8 -1.05 0 1 0
6.65 14.8 -0.95 0 1 0
6.65 13.5 0.25 0 -1 0
6.65 13.55 0.3 0 0 1
6.55 14.8 -0.85 0 1 0
6.55 13.65 0.3 0 0 1
6.45 14.8 -0.75 0 1 0
6.35 14.8 -0.65 0 1 0
6.35 13.7 0.35 0 -1 0
6.35 13.75 0.4 0 0 1
6.25 14.8 -0.55 0 1 0
6.15 14.8 -0.45 0 1 0
6.15 13.8 0.45 0 -1 0
6.15 13.85 0.5 0 0 1
6.05 14.8 -0.35 0 1 0
5.95 14.8 -0.25 0 1 0
5.95 13.9 0.55 0 -1 0
5.95 13.95 0.6 0 0 1
5.85 14.8 -0.15 0 1 0
5.75 14.8 -0.05 0 1 0
5.75 14 0.65 0 -1 0
5.75 14.05 0.7 0 0 1
5.65 14.8 0.05 0 1 0
5.65 14.15 0.7 0 0 1
5.55 14.8 0.15 0 1 0
5.45 14.8 0.25 0 1 0
5.45 14.2 0.75 0 -1 0
5.45 14.25 0.8 0 0 1
5.35 14.8 0.35 0 1 0
5.25 14.8 0.45 0 1 0
5.25 14.3 0.85 0 -1 0
5.25 14.35 0.9 0 0 1
5.15 14.8 0.55 0 1 0
5.05 14.8 0.65 0 1 0
5.05 14.4 0.95 0 -1 0
5.05 14.45 1 0 0 1
4.95 14.8 0.75 0 1 0
4.85 14.8 0.85 0 1 0
4.85 14.5 1.05 0 -1 0
4.85 14.55 1.1 0 0 1
4.75 14.8 0.95 0 1 0
4.65 14.8 1.05 0 1 0
4.65 14.6 1.15 0 -1 0
4.65 14.65 1.2 0 0 1
4.55 14.8 1.15 0 1 0
4.55 14.75 1.2 0 0 1
9.55 13 -2.05 0 -1 0
9.55 13.05 -2.1 0 0 -1
9.45 13.15 -2.1 0 0 -1
9.45 13 -1.95 0 -1 0
9.35 13.25 -2.1 0 0 -1
9.35 13 -1.85 0 -1 0
9.25 13.35 -2.1 0 0 -1
9.25 13 -1.75 0 -1 0
9.15 13.45 -2.1 0 0 -1
9.15 13 -1.65 0 -1 0
9.05 13.55 -2.1 0 0 -1
9.05 13 -1.55 0 -1 0
8.95 13.65 -2.1 0 0 -1
8.95 13 -1.45 0 -1 0
8.85 13.75 -2.1 0 0 -1
8.85 13 -1.35 0 -1 0
8.75 13.85 -2.1 0 0 -1
8.75 13 -1.25 0 -1 0
8.65 13.95 -2.1 0 0 -1
8.65 13 -1.15 0 -1 0
8.55 14.05 -2.1 0 0 -1
8.55 13 -1.05 0 -1 0
8.45 14.15 -2.1 0 0 -1
8.45 13 -0.95 0 -1 0
8.35 14.25 -2.1 0 0 -1
8.35 13 -0.85 0 -1 0
8.25 14.35 -2.1 0 0 -1
8.25 13 -0.75 0 -1 0
8.15 14.45 -2.1 0 0 -1
8.15 13 -0.65 0 -1 0
8.05 14.55 -2.1 0 0 -1
8.05 13 -0.55 0 -1 0
7.95 14.65 -2.1 0 0 -1
7.95 13 -0.45 0 -1 0
7.85 14.8 -2.05 0 1 0
7.85 14.75 -2.1 0 0 -1
7.85 13 -0.35 0 -1 0
7.75 14.8 -1.95 0 1 0
7.75 13 -0.25 0 -1 0
7.75 13.05 -0.2 0 0 1
7.65 14.8 -1.85 0 1 0
7.55 14.8 -1.75 0 1 0
7.55 13.1 -0.15 0 -1 0
7.55 13.15 -0.1 0 0 1
7.45 14.8 -1.65 0 1 0
7.35 14.8 -1.55 0 1 0
7.35 13.2 -0.05 0 -1 0
7.35 13.25 4.47035e-08 0 0 1
7.25 14.8 -1.45 0 1 0
7.15 14.8 -1.35 0 1 0
7.15 13.3 0.05 0 -1 0
7.15 13.35 0.1 0 0 1
7.05 14.8 -1.25 0 1 0
6.95 14.8 -1.15 0 1 0
6.95 13.4 0.15 0 -1 0
6.95 13.45 0.2 0 0 1
6.85 14.8 -1.05 0 1 0
6.75 14.8 -0.95 0 1 0
6.75 13.5 0.25 0 -1 0
6.75 13.55 0.3 0 0 1
6.65 14.8 -0.85 0 1 0
6.65 13.65 0.3 0 0 1
6.55 14.8 -0.75 0 1 0
6.45 14.8 -0.65 0 1 0
6.45 13.7 0.35 0 -1 0
6.45 13.75 0.4 0 0 1
6.35 14.8 -0.55 0 1 0
6.25 14.8 -0.45 0 1 0
6.25 13.8 0.45 0 -1 0
6.25 13.85 0.5 0 0 1
6.15 14.8 -0.35 0 1 0
6.05 14.8 -0.25 0 1 0
6.05 13.9 0.55 0 -1 0
6.05 13.95 0.6 0 0 1
5.95 14.8 -0.15 0 1 0
5.85 14.8 -0.05 0 1 0
5.85 14 0.65 0 -1 0
5.85 14.05 0.7 0 0 1
5.75 14.8 0.05 0 1 0
5.75 14.15 0.7 0 0 1
5.65 14.8 0.15 0 1 0
5.55 14.8 0.25 0 1 0
5.55 14.2 0.75 0 -1 0
5.55 14.25 0.8 0 0 1
5.45 14.8 0.35 0 1 0
5.35 14.8 0.45 0 1 0
5.35 14.3 0.85 0 -1 0
5.35 14.35 0.9 0 0 1
5.25 14.8 0.55 0 1 0
5.15 14.8 0.65 0 1 0
5.15 14.4 0.95 0 -1 0
5.15 14.45 1 0 0 1
5.05 14.8 0.75 0 1 0
4.95 14.8 0.85 0 1 0
4.95 14.5 1.05 0 -1 0
4.95 14.55 1.1 0 0 1
4.85 14.8 0.95 0 1 0
4.75 14.8 1.05 0 1 0
4.75 14.6 1.15 0 -1 0
4.75 14.65 1.2 0 0 1
4.65 14.8 1.15 0 1 0
4.65 14.75 1.2 0 0 1
9.65 13 -2.05 0 -1 0
9.65 13.05 -2.1 0 0 -1
9.55 13.15 -2.1 0 0 -1
9.55 13 -1.95 0 -1 0
9.45 13.25 -2.1 0 0 -1
9.45 13 -1.85 0 -1 0
9.35 13.35 -2.1 0 0 -1
9.35 13 -1.75 0 -1 0
9.25 13.45 -2.1 0 0 -1
9.25 13 -1.65 0 -1 0
9.15 13.55 -2.1 0 0 -1
9.15 13 -1.55 0 -1 0
9.05 13.65 -2.1 0 0 -1
9.05 13 -1.45 0 -1 0
8.95 13.75 -2.1 0 0 -1
8.95 13 -1.35 0 -1 0
8.85 13.85 -2.1 0 0 -1
8.85 13 -1.25 0 -1 0
8.75 13.95 -2.1 0 0 -1
8.75 13 -1.15 0 -1 0
8.65 14.05 -2.1 0 0 -1
8.65 13 -1.05 0 -1 0
8.55 14.15 -2.1 0 0 -1
8.55 13 -0.95 0 -1 0
8.45 14.25 -2.1 0 0 -1
8.45 13 -0.85 0 -1 0
8.35 14.35 -2.1 0 0 -1
8.35 13 -0.75 0 -1 0
8.25 14.45 -2.1 0 0 -1
8.25 13 -0.65 0 -1 0
8.15 14.55 -2.1 0 0 -1
8.15 13 -0.55 0 -1 0
8.05 14.65 -2.1 0 0 -1
8.05 13 -0.45 0 -1 0
7.95 14.8 -2.05 0 1 0
7.95 14.75 -2.1 0 0 -1
7.95 13 -0.35 0 -1 0
7.85 14.8 -1.95 0 1 0
7.85 13 -0.25 0 -1 0
7.85 13.05 -0.2 0 0 1
7.75 14.8 -1.85 0 1 0
7.65 14.8 -1.75 0 1 0
7.65 13.1 -0.15 0 -1 0
7.65 13.15 -0.1 0 0 1
7.55 14.8 -1.65 0 1 0
7.45 14.8 -1.55 0 1 0
7.45 13.2 -0.05 0 -1 0
7.45 13.25 4.47035e-08 0 0 1
7.35 14.8 -1.45 0 1 0
7.25 14.8 -1.35 0 1 0
7.25 13.3 0.05 0 -1 0
7.25 13.35 0.1 0 0 1
7.15 14.8 -1.25 0 1 0
7.05 14.8 -1.15 0 1 0
7.05 13.4 0.15 0 -1 0
7.05 13.45 0.2 0 0 1
6.95 14.8 -1.05 0 1 0
6.85 14.8 -0.95 0 1 0
6.85 13.5 0.25 0 -1 0
6.85 13.55 0.3 0 0 1
6.75 14.8 -0.85 0 1 0
6.75 13.65 0.3 0 0 1
6.65 14.8 -0.75 0 1 0
6.55 14.8 -0.65 0 1 0
6.55 13.7 0.35 0 -1 0
6.55 13.75 0.4 0 0 1
6.45 14.8 -0.55 0 1 0
6.35 14.8 -0.45 0 1 0
6.35 13.8 0.45 0 -1 0
6.35 13.85 0.5 0 0 1
6.25 14.8 -0.35 0 1 0
6.15 14.8 -0.25 0 1 0
6.15 13.9 0.55 0 -1 0
6.15 13.95 0.6 0 0 1
6.05 14.8 -0.15 0 1 0
5.95 14.8 -0.05 0 1 0
5.95 14 0.65 0 -1 0
5.95 14.05 0.7 0 0 1
5.85 14.8 0.05 0 1 0
5.85 14.15 0.7 0 0 1
5.75 14.8 0.15 0 1 0
5.65 14.8 0.25 0 1 0
5.65 14.2 0.75 0 -1 0
5.65 14.25 0.8 0 0 1
5.55 14.8 0.35 0 1 0
5.45 14.8 0.45 0 1 0
5.45 14.3 0.85 0 -1 0
5.45 14.35 0.9 0 0 1
5.35 14.8 0.55 0 1 0
5.25 14.8 0.65 0 1 0
5.25 14.4 0.95 0 -1 0
5.25 14.45 1 0 0 1
5.15 14.8 0.75 0 1 0
5.05 14.8 0.85 0 1 0
5.05 14.5 1.05 0 -1 0
5.05 14.55 1.1 0 0 1
4.95 14.8 0.95 0 1 0
4.85 14.8 1.05 0 1 0
4.85 14.6 1.15 0 -1 0
4.85 14.65 1.2 0 0 1
4.75 14.8 1.15 0 1 0
4.75 14.75 1.2 0 0 1
9.75 13 -2.05 0 -1 0
9.75 13.05 -2.1 0 0 -1
9.65 13.15 -2.1 0 0 -1
9.65 13 -1.95 0 -1 0
9.55 13.25 -2.1 0 0 -1
9.55 13 -1.85 0 -1 0
9.45 13.35 -2.1 0 0 -1
9.45 13 -1.75 0 -1 0
9.35 13.45 -2.1 0 0 -1
9.35 13 -1.65 0 -1 0
9.25 13.55 -2.1 0 0 -1
9.25 13 -1.55 0 -1 0
9.15 13.65 -2.1 0 0 -1
9.15 13 -1.45 0 -1 0
9.05 13.75 -2.1 0 0 -1
9.05 13 -1.35 0 -1 0
8.95 13.85 -2.1 0 0 -1
8.95 13 -1.25 0 -1 0
8.85 13.95 -2.1 0 0 -1
8.85 13 -1.15 0 -1 0
8.75 14.05 -2.1 0 0 -1
8.75 13 -1.05 0 -1 0
8.65 14.15 -2.1 0 0 -1
8.65 13 -0.95 0 -1 0
8.55 14.25 -2.1 0 0 -1
8.55 13 -0.85 0 -1 0
8.45 14.35 -2.1 0 0 -1
8.45 13 -0.75 0 -1 0
8.35 14.45 -2.1 0 0 -1
8.35 13 -0.65 0 -1 0
8.25 14.55 -2.1 0 0 -1
8.25 13 -0.55 0 -1 0
8.15 14.65 -2.1 0 0 -1
8.15 13 -0.45 0 -1 0
8.05 14.8 -2.05 0 1 0
8.05 14.75 -2.1 0 0 -1
8.05 13 -0.35 0 -1 0
7.95 14.8 -1.95 0 1 0
7.95 13 -0.25 0 -1 0
7.95 13.05 -0.2 0 0 1
7.85 14.8 -1.85 0 1 0
7.75 14.8 -1.75 0 1 0
7.75 13.1 -0.15 0 -1 0
7.75 13.15 -0.1 0 0 1
7.65 14.8 -1.65 0 1 0
7.55 14.8 -1.55 0 1 0
7.55 13.2 -0.05 0 -1 0
7.55 13.25 4.47035e-08 0 0 1
7.45 14.8 -1.45 0 1 0
7.35 14.8 -1.35 0 1 0
7.35 13.3 0.05 0 -1 0
7.35 13.35 0.1 0 0 1
7.25 14.8 -1.25 0 1 0
7.15 14.8 -1.15 0 1 0
7.15 13.4 0.15 0 -1 0
7.15 13.45 0.2 0 0 1
7.05 14.8 -1.05 0 1 0
6.95 14.8 -0.95 0 1 0
6.95 13.5 0.25 0 -1 0
6.95 13.55 0.3 0 0 1
6.85 14.8 -0.85 0 1 0
6.85 13.65 0.3 0 0 1
6.75 14.8 -0.75 0 1 0
6.65 14.8 -0.65 0 1 0
6.65 13.7 0.35 0 -1 0
6.65 13.75 0.4 0 0 1
6.55 14.8 -0.55 0 1 0
6.45 14.8 -0.45 0 1 0
6.45 13.8 0.45 0 -1 0
6.45 13.85 0.5 0 0 1
6.35 14.8 -0.35 0 1 0
6.25 14.8 -0.25 0 1 0
6.25 13.9 0.55 0 -1 0
6.25 13.95 0.6 0 0 1
6.15 14.8 -0.15 0 1 0
6.05 14.8 -0.05 0 1 0
6.05 14 0.65 0 -1 0
6.05 14.05 0.7 0 0 1
5.95 14.8 0.05 0 1 0
5.95 14.15 0.7 0 0 1
5.85 14.8 0.15 0 1 0
5.75 14.8 0.25 0 1 0
5.75 14.2 0.75 0 -1 0
5.75 14.25 0.8 0 0 1
5.65 14.8 0.35 0 1 0
5.55 14.8 0.45 0 1 0
5.55 14.3 0.85 0 -1 0
5.55 14.35 0.9 0 0 1
5.45 14.8 0.55 0 1 0
5.35 14.8 0.65 0 1 0
5.35 14.4 0.95 0 -1 0
5.35 14.45 1 0 0 1
5.25 14.8 0.75 0 1 0
5.15 14.8 0.85 0 1 0
5.15 14.5 1.05 0 -1 0
5.15 14.55 1.1 0 0 1
5.05 14.8 0.95 0 1 0
4.95 14.8 1.05 0 1 0
4.95 14.6 1.15 0 -1 0
4.95 14.65 1.2 0 0 1
4.85 14.8 1.15 0 1 0
4.85 14.75 1.2 0 0 1
9.85 13 -2.05 0 -1 0
9.85 13.05 -2.1 0 0 -1
9.75 13.15 -2.1 0 0 -1
9.75 13 -1.95 0 -1 0
9.65 13.25 -2.1 0 0 -1
9.65 13 -1.85 0 -1 0
9.55 13.35 -2.1 0 0 -1
9.55 13 -1.75 0 -1 0
9.45 13.45 -2.1 0 0 -1
9.45 13 -1.65 0 -1 0
9.35 13.55 -2.1 0 0 -1
9.35 13 -1.55 0 -1 0
9.25 13.65 -2.1 0 0 -1
9.25 13 -1.45 0 -1 0
9.15 13.75 -2.1 0 0 -1
9.15 13 -1.35 0 -1 0
9.05 13.85 -2.1 0 0 -1
9.05 13 -1.25 0 -1 0
8.95 13.95 -2.1 0 0 -1
8.95 13 -1.15 0 -1 0
8.85 14.05 -2.1 0 0 -1
8.85 13 -1.05 0 -1 0
8.75 14.15 -2.1 0 0 -1
8.75 13 -0.95 0 -1 0
8.65 14.25 -2.1 0 0 -1
8.65 13 -0.85 0 -1 0
8.55 14.35 -2.1 0 0 -1
8.55 13 -0.75 0 -1 0
8.45 14.45 -2.1 0 0 -1
8.45 13 -0.65 0 -1 0
8.35 14.55 -2.1 0 0 -1
8.35 13 -0.55 0 -1 0
8.25 14.65 -2.1 0 0 -1
8.25 13 -0.45 0 -1 0
8.15 14.8 -2.05 0 1 0
8.15 14.75 -2.1 0 0 -1
8.15 13 -0.35 0 -1 0
8.05 14.8 -1.95 0 1 0
8.05 13 -0.25 0 -1 0
8.05 13.05 -0.2 0 0 1
7.95 14.8 -1.85 0 1 0
7.85 14.8 -1.75 0 1 0
7.85 13.1 -0.15 0 -1 0
7.85 13.15 -0.1 0 0 1
7.75 14.8 -1.65 0 1 0
7.65 14.8 -1.55 0 1 0
7.65 13.2 -0.05 0 -1 0
7.65 13.25 4.47035e-08 0 0 1
7.55 14.8 -1.45 0 1 0
7.45 14.8 -1.35 0 1 0
7.45 13.3 0.05 0 -1 0
7.45 13.35 0.1 0 0 1
7.35 14.8 -1.25 0 1 0
7.25 14.8 -1.15 0 1 0
7.25 13.4 0.15 0 -1 0
7.25 13.45 0.2 0 0 1
7.15 14.8 -1.05 0 1 0
7.05 14.8 -0.95 0 1 0
7.05 13.5 0.25 0 -1 0
7.05 13.55 0.3 0 0 1
6.95 14.8 -0.85 0 1 0
6.95 13.65 0.3 0 0 1
6.85 14.8 -0.75 0 1 0
6.75 14.8 -0.65 0 1 0
6.75 13.7 0.35 0 -1 0
6.75 13.75 0.4 0 0 1
6.65 14.8 -0.55 0 1 0
6.55 14.8 -0.45 0 1 0
6.55 13.8 0.45 0 -1 0
6.55 13.85 0.5 0 0 1
6.45 14.8 -0.35 0 1 0
6.35 14.8 -0.25 0 1 0
6.35 13.9 0.55 0 -1 0
6.35 13.95 0.6 0 0 1
6.25 14.8 -0.15 0 1 0
6.15 14.8 -0.05 0 1 0
6.15 14 0.65 0 -1 0
6.15 14.05 0.7 0 0 1
6.05 14.8 0.05 0 1 0
6.05 14.15 0.7 0 0 1
5.95 14.8 0.15 0 1 0
5.85 14.8 0.25 0 1 0
5.85 14.2 0.75 0 -1 0
5.85 14.25 0.8 0 0 1
5.75 14.8 0.35 0 1 0
5.65 14.8 0.45 0 1 0
5.65 14.3 0.85 0 -1 0
5.65 14.35 0.9 0 0 1
5.55 14.8 0.55 0 1 0
5.45 14.8 0.65 0 1 0
5.45 14.4 0.95 0 -1 0
5.45 14.45 1 0 0 1
5.35 14.8 0.75 0 1 0
5.25 14.8 0.85 0 1 0
5.25 14.5 1.05 0 -1 0
5.25 14.55 1.1 0 0 1
5.15 14.8 0.95 0 1 0
5.05 14.8 1.05 0 1 0
5.05 14.6 1.15 0 -1 0
5.05 14.65 1.2 0 0 1
4.95 14.8 1.15 0 1 0
4.95 14.75 1.2 0 0 1
9.95 13 -2.05 0 -1 0
9.95 13.05 -2.1 0 0 -1
9.85 13.15 -2.1 0 0 -1
9.85 13 -1.95 0 -1 0
9.75 13.25 -2.1 0 0 -1
9.75 13 -1.85 0 -1 0
9.65 13.35 -2.1 0 0 -1
9.65 13 -1.75 0 -1 0
9.55 13.45 -2.1 0 0 -1
9.55 13 -1.65 0 -1 0
9.45 13.55 -2.1 0 0 -1
9.45 13 -1.55 0 -1 0
9.35 13.65 -2.1 0 0 -1
9.35 13 -1.45 0 -1 0
9.25 13.75 -2.1 0 0 -1
9.25 13 -1.35 0 -1 0
9.15 13.85 -2.1 0 0 -1
9.15 13 -1.25 0 -1 0
9.05 13.95 -2.1 0 0 -1
9.05 13 -1.15 0 -1 0
8.95 14.05 -2.1 0 0 -1
8.95 13 -1.05 0 -1 0
8.85 14.15 -2.1 0 0 -1
8.85 13 -0.95 0 -1 0
8.75 14.25 -2.1 0 0 -1
8.75 13 -0.85 0 -1 0
8.65 14.35 -2.1 0 0 -1
8.65 13 -0.75 0 -1 0
8.55 14.45 -2.1 0 0 -1
8.55 13 -0.65 0 -1 0
8.45 14.55 -2.1 0 0 -1
8.45 13 -0.55 0 -1 0
8.35 14.65 -2.1 0 0 -1
8.35 13 -0.45 0 -1 0
8.25 14.8 -2.05 0 1 0
8.25 14.75 -2.1 0 0 -1
8.25 13 -0.35 0 -1 0
8.15 14.8 -1.95 0 1 0
8.15 13 -0.25 0 -1 0
8.15 13.05 -0.2 0 0 1
8.05 14.8 -1.85 0 1 0
7.95 14.8 -1.75 0 1 0
7.95 13.1 -0.15 0 -1 0
7.95 13.15 -0.1 0 0 1
7.85 14.8 -1.65 0 1 0
7.75 14.8 -1.55 0 1 0
7.75 13.2 -0.05 0 -1 0
7.75 13.25 4.47035e-08 0 0 1
7.65 14.8 -1.45 0 1 0
7.55 14.8 -1.35 0 1 0
7.55 13.3 0.05 0 -1 0
7.55 13.35 0.1 0 0 1
7.45 14.8 -1.25 0 1 0
7.35 14.8 -1.15 0 1 0
7.35 13.4 0.15 0 -1 0
7.35 13.45 0.2 0 0 1
7.25 14.8 -1.05 0 1 0
7.15 14.8 -0.95 0 1 0
7.15 13.5 0.25 0 -1 0
7.15 13.55 0.3 0 0 1
7.05 14.8 -0.85 0 1 0
7.05 13.65 0.3 0 0 1
6.95 14.8 -0.75 0 1 0
6.85 14.8 -0.65 0 1 0
6.85 13.7 0.35 0 -1 0
6.85 13.75 0.4 0 0 1
6.75 14.8 -0.55 0 1 0
6.65 14.8 -0.45 0 1 0
6.65 13.8 0.45 0 -1 0
6.65 13.85 0.5 0 0 1
6.55 14.8 -0.35 0 1 0
6.45 14.8 -0.25 0 1 0
6.45 13.9 0.55 0 -1 0
6.45 13.95 0.6 0 0 1
6.35 14.8 -0.15 0 1 0
6.25 14.8 -0.05 0 1 0
6.25 14 0.65 0 -1 0
6.25 14.05 0.7 0 0 1
6.15 14.8 0.05 0 1 0
6.15 14.15 0.7 0 0 1
6.05 14.8 0.15 0 1 0
5.95 14.8 0.25 0 1 0
5.95 14.2 0.75 0 -1 0
5.95 14.25 0.8 0 0 1
5.85 14.8 0.35 0 1 0
5.75 14.8 0.45 0 1 0
5.75 14.3 0.85 0 -1 0
5.75 14.35 0.9 0 0 1
5.65 14.8 0.55 0 1 0
5.55 14.8 0.65 0 1 0
5.55 14.4 0.95 0 -1 0
5.55 14.45 1 0 0 1
5.45 14.8 0.75 0 1 0
5.35 14.8 0.85 0 1 0
5.35 14.5 1.05 0 -1 0
5.35 14.55 1.1 0 0 1
5.25 14.8 0.95 0 1 0
5.15 14.8 1.05 0 1 0
5.15 14.6 1.15 0 -1 0
5.15 14.65 1.2 0 0 1
5.05 14.8 1.15 0 1 0
5.05 14.75 1.2 0 0 1
10.05 13 -2.05 0 -1 0
10.05 13.05 -2.1 0 0 -1
9.95 13.15 -2.1 0 0 -1
9.95 13 -1.95 0 -1 0
9.85 13.25 -2.1 0 0 -1
9.85 13 -1.85 0 -1 0
9.75 13.35 -2.1 0 0 -1
9.75 13 -1.75 0 -1 0
9.65 13.45 -2.1 0 0 -1
9.65 13 -1.65 0 -1 0
9.55 13.55 -2.1 0 0 -1
9.55 13 -1.55 0 -1 0
9.45 13.65 -2.1 0 0 -1
9.45 13 -1.45 0 -1 0
9.35 13.75 -2.1 0 0 -1
9.35 13 -1.35 0 -1 0
9.25 13.85 -2.1 0 0 -1
9.25 13 -1.25 0 -1 0
9.15 13.95 -2.1 0 0 -1
9.15 13 -1.15 0 -1 0
9.05 14.05 -2.1 0 0 -1
9.05 13 -1.05 0 -1 0
8.95 14.15 -2.1 0 0 -1
8.95 13 -0.95 0 -1 0
8.85 14.25 -2.1 0 0 -1
8.85 13 -0.85 0 -1 0
8.75 14.35 -2.1 0 0 -1
8.75 13 -0.75 0 -1 0
8.65 14.45 -2.1 0 0 -1
8.65 13 -0.65 0 -1 0
8.55 14.55 -2.1 0 0 -1
8.55 13 -0.55 0 -1 0
8.45 14.65 -2.1 0 0 -1
8.45 13 -0.45 0 -1 0
8.35 14.8 -2.05 0 1 0
8.35 14.75 -2.1 0 0 -1
8.35 13 -0.35 0 -1 0
8.25 14.8 -1.95 0 1 0
8.25 13 -0.25 0 -1 0
8.25 13.05 -0.2 0 0 1
8.15 14.8 -1.85 0 1 0
8.05 14.8 -1.75 0 1 0
8.05 13.1 -0.15 0 -1 0
8.05 13.15 -0.1 0 0 1
7.95 14.8 -1.65 0 1 0
7.85 14.8 -1.55 0 1 0
7.85 13.2 -0.05 0 -1 0
7.85 13.25 4.47035e-08 0 0 1
7.75 14.8 -1.45 0 1 0
7.65 14.8 -1.35 0 1 0
7.65 13.3 0.05 0 -1 0
7.65 13.35 0.1 0 0 1
7.55 14.8 -1.25 0 1 0
7.45 14.8 -1.15 0 1 0
7.45 13.4 0.15 0 -1 0
7.45 13.45 0.2 0 0 1
7.35 14.8 -1.05 0 1 0
7.25 14.8 -0.95 0 1 0
7.25 13.5 0.25 0 -1 0
7.25 13.55 0.3 0 0 1
7.15 14.8 -0.85 0 1 0
7.15 13.65 0.3 0 0 1
7.05 14.8 -0.75 0 1 0
6.95 14.8 -0.65 0 1 0
6.95 13.7 0.35 0 -1 0
6.95 13.75 0.4 0 0 1
6.85 14.8 -0.55 0 1 0
6.75 14.8 -0.45 0 1 0
6.75 13.8 0.45 0 -1 0
6.75 13.85 0.5 0 0 1
6.65 14.8 -0.35 0 1 0
6.55 14.8 -0.25 0 1 0
6.55 13.9 0.55 0 -1 0
6.55 13.95 0.6 0 0 1
6.45 14.8 -0.15 0 1 0
6.35 14.8 -0.05 0 1 0
6.35 14 0.65 0 -1 0
6.35 14.05 0.7 0 0 1
6.25 14.8 0.05 0 1 0
6.25 14.15 0.7 0 0 1
6.15 14.8 0.15 0 1 0
6.05 14.8 0.25 0 1 0
6.05 14.2 0.75 0 -1 0
6.05 14.25 0.8 0 0 1
5.95 14.8 0.35 0 1 0
5.85 14.8 0.45 0 1 0
5.85 14.3 0.85 0 -1 0
5.85 14.35 0.9 0 0 1
5.75 14.8 0.55 0 1 0
5.65 14.8 0.65 0 1 0
5.65 14.4 0.95 0 -1 0
5.65 14.45 1 0 0 1
5.55 14.8 0.75 0 1 0
5.45 14.8 0.85 0 1 0
5.45 14.5 1.05 0 -1 0
5.45 14.55 1.1 0 0 1
5.35 14.8 0.95 0 1 0
5.25 14.8 1.05 0 1 0
5.25 14.6 1.15 0 -1 0
5.25 14.65 1.2 0 0 1
5.15 14.8 1.15 0 1 0
5.15 14.75 1.2 0 0 1
10.15 13 -2.05 0 -1 0
10.15 13.05 -2.1 0 0 -1
10.05 13.15 -2.1 0 0 -1
10.05 13 -1.95 0 -1 0
9.95 13.25 -2.1 0 0 -1
9.95 13 -1.85 0 -1 0
9.85 13.35 -2.1 0 0 -1
9.85 13 -1.75 0 -1 0
9.75 13.45 -2.1 0 0 -1
9.75 13 -1.65 0 -1 0
9.65 13.55 -2.1 0 0 -1
9.65 13 -1.55 0 -1 0
9.55 13.65 -2.1 0 0 -1
9.55 13 -1.45 0 -1 0
9.45 13.75 -2.1 0 0 -1
9.45 13 -1.35 0 -1 0
9.35 13.85 -2.1 0 0 -1
9.35 13 -1.25 0 -1 0
9.25 13.95 -2.1 0 0 -1
9.25 13 -1.15 0 -1 0
9.15 14.05 -2.1 0 0 -1
9.15 13 -1.05 0 -1 0
9.05 14.15 -2.1 0 0 -1
9.05 13 -0.95 0 -1 0
8.95 14.25 -2.1 0 0 -1
8.95 13 -0.85 0 -1 0
8.85 14.35 -2.1 0 0 -1
8.85 13 -0.75 0 -1 0
8.75 14.45 -2.1 0 0 -1
8.75 13 -0.65 0 -1 0
8.65 14.55 -2.1 0 0 -1
8.65 13 -0.55 0 -1 0
8.55 14.65 -2.1 0 0 -1
8.55 13 -0.45 0 -1 0
8.45 14.8 -2.05 0 1 0
8.45 14.75 -2.1 0 0 -1
8.45 13 -0.35 0 -1 0
8.35 14.8 -1.95 0 1 0
8.35 13 -0.25 0 -1 0
8.35 13.05 -0.2 0 0 1
8.25 14.8 -1.85 0 1 0
8.15 14.8 -1.75 0 1 0
8.15 13.1 -0.15 0 -1 0
8.15 13.15 -0.1 0 0 1
8.05 14.8 -1.65 0 1 0
7.95 14.8 -1.55 0 1 0
7.95 13.2 -0.05 0 -1 0
7.95 13.25 4.47035e-08 0 0 1
7.85 14.8 -1.45 0 1 0
7.75 14.8 -1.35 0 1 0
7.75 13.3 0.05 0 -1 0
7.75 13.35 0.1 0 0 1
7.65 14.8 -1.25 0 1 0
7.55 14.8 -1.15 0 1 0
7.55 13.4 0.15 0 -1 0
7.55 13.45 0.2 0 0 1
7.45 14.8 -1.05 0 1 0
7.35 14.8 -0.95 0 1 0
7.35 13.5 0.25 0 -1 0
7.35 13.55 0.3 0 0 1
7.25 14.8 -0.85 0 1 0
7.25 13.65 0.3 0 0 1
7.15 14.8 -0.75 0 1 0
7.05 14.8 -0.65 0 1 0
7.05 13.7 0.35 0 -1 0
7.05 13.75 0.4 0 0 1
6.95 14.8 -0.55 0 1 0
6.85 14.8 -0.45 0 1 0
6.85 13.8 0.45 0 -1 0
6.85 13.85 0.5 0 0 1
6.75 14.8 -0.35 0 1 0
6.65 14.8 -0.25 0 1 0
6.65 13.9 0.55 0 -1 0
6.65 13.95 0.6 0 0 1
6.55 14.8 -0.15 0 1 0
6.45 14.8 -0.05 0 1 0
6.45 14 0.65 0 -1 0
6.45 14.05 0.7 0 0 1
6.35 14.8 0.05 0 1 0
6.35 14.15 0.7 0 0 1
6.25 14.8 0.15 0 1 0
6.15 14.8 0.25 0 1 0
6.15 14.2 0.75 0 -1 0
6.15 14.25 0.8 0 0 1
6.05 14.8 0.35 0 1 0
5.95 14.8 0.45 0 1 0
5.95 14.3 0.85 0 -1 0
5.95 14.35 0.9 0 0 1
5.85 14.8 0.55 0 1 0
5.75 14.8 0.65 0 1 0
5.75 14.4 0.95 0 -1 0
5.75 14.45 1 0 0 1
5.65 14.8 0.75 0 1 0
5.55 14.8 0.85 0 1 0
5.55 14.5 1.05 0 -1 0
5.55 14.55 1.1 0 0 1
5.45 14.8 0.95 0 1 0
5.35 14.8 1.05 0 1 0
5.35 14.6 1.15 0 -1 0
5.35 14.65 1.2 0 0 1
5.25 14.8 1.15 0 1 0
5.25 14.75 1.2 0 0 1
10.25 13 -2.05 0 -1 0
10.25 13.05 -2.1 0 0 -1
10.15 13.15 -2.1 0 0 -1
10.15 13 -1.95 0 -1 0
10.05 13.25 -2.1 0 0 -1
10.05 13 -1.85 0 -1 0
9.95 13.35 -2.1 0 0 -1
9.95 13 -1.75 0 -1 0
9.85 13.45 -2.1 0 0 -1
9.85 13 -1.65 0 -1 0
9.75 13.55 -2.1 0 0 -1
9.75 13 -1.55 0 -1 0
9.65 13.65 -2.1 0 0 -1
9.65 13 -1.45 0 -1 0
9.55 13.75 -2.1 0 0 -1
9.55 13 -1.35 0 -1 0
9.45 13.85 -2.1 0 0 -1
9.45 13 -1.25 0 -1 0
9.35 13.95 -2.1 0 0 -1
9.35 13 -1.15 0 -1 0
9.25 14.05 -2.1 0 0 -1
9.25 13 -1.05 0 -1 0
9.15 14.15 -2.1 0 0 -1
9.15 13 -0.95 0 -1 0
9.05 14.25 -2.1 0 0 -1
9.05 13 -0.85 0 -1 0
8.95 14.35 -2.1 0 0 -1
8.95 13 -0.75 0 -1 0
8.85 14.45 -2.1 0 0 -1
8.85 13 -0.65 0 -1 0
8.75 14.55 -2.1 0 0 -1
8.75 13 -0.55 0 -1 0
8.65 14.65 -2.1 0 0 -1
8.65 13 -0.45 0 -1 0
8.55 14.8 -2.05 0 1 0
8.55 14.75 -2.1 0 0 -1
8.55 13 -0.35 0 -1 0
8.45 14.8 -1.95 0 1 0
8.45 13 -0.25 0 -1 0
8.45 13.05 -0.2 0 0 1
8.35 14.8 -1.85 0 1 0
8.25 14.8 -1.75 0 1 0
8.25 13.1 -0.15 0 -1 0
8.25 13.15 -0.1 0 0 1
8.15 14.8 -1.65 0 1 0
8.05 14.8 -1.55 0 1 0
8.05 13.2 -0.05 0 -1 0
8.05 13.25 4.47035e-08 0 0 1
7.95 14.8 -1.45 0 1 0
7.85 14.8 -1.35 0 1 0
7.85 13.3 0.05 0 -1 0
7.85 13.35 0.1 0 0 1
7.75 14.8 -1.25 0 1 0
7.65 14.8 -1.15 0 1 0
7.65 13.4 0.15 0 -1 0
7.65 13.45 0.2 0 0 1
7.55 14.8 -1.05 0 1 0
7.45 14.8 -0.95 0 1 0
7.45 13.5 0.25 0 -1 0
7.45 13.55 0.3 0 0 1
7.35 14.8 -0.85 0 1 0
7.35 13.65 0.3 0 0 1
7.25 14.8 -0.75 0 1 0
7.15 14.8 -0.65 0 1 0
7.15 13.7 0.35 0 -1 0
7.15 13.75 0.4 0 0 1
7.05 14.8 -0.55 0 1 0
6.95 14.8 -0.45 0 1 0
6.95 13.8 0.45 0 -1 0
6.95 13.85 0.5 0 0 1
6.85 14.8 -0.35 0 1 0
6.75 14.8 -0.25 0 1 0
6.75 13.9 0.55 0 -1 0
6.75 13.95 0.6 0 0 1
6.65 14.8 -0.15 0 1 0
6.55 14.8 -0.05 0 1 0
6.55 14 0.65 0 -1 0
6.55 14.05 0.7 0 0 1
6.45 14.8 0.05 0 1 0
6.45 14.15 0.7 0 0 1
6.35 14.8 0.15 0 1 0
6.25 14.8 0.25 0 1 0
6.25 14.2 0.75 0 -1 0
6.25 14.25 0.8 0 0 1
6.15 14.8 0.35 0 1 0
6.05 14.8 0.45 0 1 0
6.05 14.3 0.85 0 -1 0
6.05 14.35 0.9 0 0 1
5.95 14.8 0.55 0 1 0
5.85 14.8 0.65 0 1 0
5.85 14.4 0.95 0 -1 0
5.85 14.45 1 0 0 1
5.75 14.8 0.75 0 1 0
5.65 14.8 0.85 0 1 0
5.65 14.5 1.05 0 -1 0
5.65 14.55 1.1 0 0 1
5.55 14.8 0.95 0 1 0
5.45 14.8 1.05 0 1 0
5.45 14.6 1.15 0 -1 0
5.45 14.65 1.2 0 0 1
5.35 14.8 1.15 0 1 0
5.35 14.75 1.2 0 0 1
10.35 13 -2.05 0 -1 0
10.35 13.05 -2.1 0 0 -1
10.25 13.15 -2.1 0 0 -1
10.25 13 -1.95 0 -1 0
10.15 13.25 -2.1 0 0 -1
10.15 13 -1.85 0 -1 0
10.05 13.35 -2.1 0 0 -1
10.05 13 -1.75 0 -1 0
9.95 13.45 -2.1 0 0 -1
9.95 13 -1.65 0 -1 0
9.85 13.55 -2.1 0 0 -1
9.85 13 -1.55 0 -1 0
9.75 13.65 -2.1 0 0 -1
9.75 13 -1.45 0 -1 0
9.65 13.75 -2.1 0 0 -1
9.65 13 -1.35 0 -1 0
9.55 13.85 -2.1 0 0 -1
9.55 13 -1.25 0 -1 0
9.45 13.95 -2.1 0 0 -1
9.45 13 -1.15 0 -1 0
9.35 14.05 -2.1 0 0 -1
9.35 13 -1.05 0 -1 0
9.25 14.15 -2.1 0 0 -1
9.25 13 -0.95 0 -1 0
9.15 14.25 -2.1 0 0 -1
9.15 13 -0.85 0 -1 0
9.05 14.35 -2.1 0 0 -1
9.05 13 -0.75 0 -1 0
8.95 14.45 -2.1 0 0 -1
8.95 13 -0.65 0 -1 0
8.85 14.55 -2.1 0 0 -1
8.85 13 -0.55 0 -1 0
8.75 14.65 -2.1 0 0 -1
8.75 13 -0.45 0 -1 0
8.65 14.8 -2.05 0 1 0
8.65 14.75 -2.1 0 0 -1
8.65 13 -0.35 0 -1 0
8.55 14.8 -1.95 0 1 0
8.55 13 -0.25 0 -1 0
8.55 13.05 -0.2 0 0 1
8.45 14.8 -1.85 0 1 0
8.35 14.8 -1.75 0 1 0
8.35 13.1 -0.15 0 -1 0
8.35 13.15 -0.1 0 0 1
8.25 14.8 -1.65 0 1 0
8.15 14.8 -1.55 0 1 0
8.15 13.2 -0.05 0 -1 0
8.15 13.25 4.47035e-08 0 0 1
8.05 14.8 -1.45 0 1 0
7.95 14.8 -1.35 0 1 0
7.95 13.3 0.05 0 -1 0
7.95 13.35 0.1 0 0 1
7.85 14.8 -1.25 0 1 0
7.75 14.8 -1.15 0 1 0
7.75 13.4 0.15 0 -1 0
7.75 13.45 0.2 0 0 1
7.65 14.8 -1.05 0 1 0
7.55 14.8 -0.95 0 1 0
7.55 13.5 0.25 0 -1 0
7.55 13.55 0.3 0 0 1
7.45 14.8 -0.85 0 1 0
7.45 13.65 0.3 0 0 1
7.35 14.8 -0.75 0 1 0
7.25 14.8 -0.65 0 1 0
7.25 13.7 0.35 0 -1 0
7.25 13.75 0.4 0 0 1
7.15 14.8 -0.55 0 1 0
7.05 14.8 -0.45 0 1 0
7.05 13.8 0.45 0 -1 0
7.05 13.85 0.5 0 0 1
6.95 14.8 -0.35 0 1 0
6.85 14.8 -0.25 0 1 0
6.85 13.9 0.55 0 -1 0
6.85 13.95 0.6 0 0 1
6.75 14.8 -0.15 0 1 0
6.65 14.8 -0.05 0 1 0
6.65 14 0.65 0 -1 0
6.65 14.05 0.7 0 0 1
6.55 14.8 0.05 0 1 0
6.55 14.15 0.7 0 0 1
6.45 14.8 0.15 0 1 0
6.35 14.8 0.25 0 1 0
6.35 14.2 0.75 0 -1 0
6.35 14.25 0.8 0 0 1
6.25 14.8 0.35 0 1 0
6.15 14.8 0.45 0 1 0
6.15 14.3 0.85 0 -1 0
6.15 14.35 0.9 0 0 1
6.05 14.8 0.55 0 1 0
5.95 14.8 0.65 0 1 0
5.95 14.4 0.95 0 -1 0
5.95 14.45 1 0 0 1
5.85 14.8 0.75 0 1 0
5.75 14.8 0.85 0 1 0
5.75 14.5 1.05 0 -1 0
5.75 14.55 1.1 0 0 1
5.65 14.8 0.95 0 1 0
5.55 14.8 1.05 0 1 0
5.55 14.6 1.15 0 -1 0
5.55 14.65 1.2 0 0 1
5.45 14.8 1.15 0 1 0
5.45 14.75 1.2 0 0 1
10.45 13 -2.05 0 -1 0
10.45 13.05 -2.1 0 0 -1
10.35 13.15 -2.1 0 0 -1
10.35 13 -1.95 0 -1 0
10.25 13.25 -2.1 0 0 -1
10.25 13 -1.85 0 -1 0
10.15 13.35 -2.1 0 0 -1
10.15 13 -1.75 0 -1 0
10.05 13.45 -2.1 0 0 -1
10.05 13 -1.65 0 -1 0
9.95 13.55 -2.1 0 0 -1
9.95 13 -1.55 0 -1 0
9.85 13.65 -2.1 0 0 -1
9.85 13 -1.45 0 -1 0
9.75 13.75 -2.1 0 0 -1
9.75 13 -1.35 0 -1 0
9.65 13.85 -2.1 0 0 -1
9.65 13 -1.25 0 -1 0
9.55 13.95 -2.1 0 0 -1
9.55 13 -1.15 0 -1 0
9.45 14.05 -2.1 0 0 -1
9.45 13 -1.05 0 -1 0
9.35 14.15 -2.1 0 0 -1
9.35 13 -0.95 0 -1 0
9.25 14.25 -2.1 0 0 -1
9.25 13 -0.85 0 -1 0
9.15 14.35 -2.1 0 0 -1
9.15 13 -0.75 0 -1 0
9.05 14.45 -2.1 0 0 -1
9.05 13 -0.65 0 -1 0
8.95 14.55 -2.1 0 0 -1
8.95 13 -0.55 0 -1 0
8.85 14.65 -2.1 0 0 -1
8.85 13 -0.45 0 -1 0
8.75 14.8 -2.05 0 1 0
8.75 14.75 -2.1 0 0 -1
8.75 13 -0.35 0 -1 0
8.65 14.8 -1.95 0 1 0
8.65 13 -0.25 0 -1 0
8.65 13.05 -0.2 0 0 1
8.55 14.8 -1.85 0 1 0
8.45 14.8 -1.75 0 1 0
8.45 13.1 -0.15 0 -1 0
8.45 13.15 -0.1 0 0 1
8.35 14.8 -1.65 0 1 0
8.25 14.8 -1.55 0 1 0
8.25 13.2 -0.05 0 -1 0
8.25 13.25 4.47035e-08 0 0 1
8.15 14.8 -1.45 0 1 0
8.05 14.8 -1.35 0 1 0
8.05 13.3 0.05 0 -1 0
8.05 13.35 0.1 0 0 1
7.95 14.8 -1.25 0 1 0
7.85 14.8 -1.15 0 1 0
7.85 13.4 0.15 0 -1 0
7.85 13.45 0.2 0 0 1
7.75 14.8 -1.05 0 1 0
7.65 14.8 -0.95 0 1 0
7.65 13.5 0.25 0 -1 0
7.65 13.55 0.3 0 0 1
7.55 14.8 -0.85 0 1 0
7.55 13.65 0.3 0 0 1
7.45 14.8 -0.75 0 1 0
7.35 14.8 -0.65 0 1 0
7.35 13.7 0.35 0 -1 0
7.35 13.75 0.4 0 0 1
7.25 14.8 -0.55 0 1 0
7.15 14.8 -0.45 0 1 0
7.15 13.8 0.45 0 -1 0
7.15 13.85 0.5 0 0 1
7.05 14.8 -0.35 0 1 0
6.95 14.8 -0.25 0 1 0
6.95 13.9 0.55 0 -1 0
6.95 13.95 0.6 0 0 1
6.85 14.8 -0.15 0 1 0
6.75 14.8 -0.05 0 1 0
6.75 14 0.65 0 -1 0
6.75 14.05 0.7 0 0 1
6.65 14.8 0.05 0 1 0
6.65 14.15 0.7 0 0 1
6.55 14.8 0.15 0 1 0
6.45 14.8 0.25 0 1 0
6.45 14.2 0.75 0 -1 0
6.45 14.25 0.8 0 0 1
6.35 14.8 0.35 0 1 0
6.25 14.8 0.45 0 1 0
6.25 14.3 0.85 0 -1 0
6.25 14.35 0.9 0 0 1
6.15 14.8 0.55 0 1 0
6.05 14.8 0.65 0 1 0
6.05 14.4 0.95 0 -1 0
6.05 14.45 1 0 0 1
5.95 14.8 0.75 0 1 0
5.85 14.8 0.85 0 1 0
5.85 14.5 1.05 0 -1 0
5.85 14.55 1.1 0 0 1
5.75 14.8 0.95 0 1 0
5.65 14.8 1.05 0 1 0
5.65 14.6 1.15 0 -1 0
5.65 14.65 1.2 0 0 1
5.55 14.8 1.15 0 1 0
5.55 14.75 1.2 0 0 1
10.55 13 -2.05 0 -1 0
10.55 13.05 -2.1 0 0 -1
10.45 13.15 -2.1 0 0 -1
10.45 13 -1.95 0 -1 0
10.35 13.25 -2.1 0 0 -1
10.35 13 -1.85 0 -1 0
10.25 13.35 -2.1 0 0 -1
10.25 13 -1.75 0 -1 0
10.15 13.45 -2.1 0 0 -1
10.15 13 -1.65 0 -1 0
10.05 13.55 -2.1 0 0 -1
10.05 13 -1.55 0 -1 0
9.95 13.65 -2.1 0 0 -1
9.95 13 -1.45 0 -1 0
9.85 13.75 -2.1 0 0 -1
9.85 13 -1.35 0 -1 0
9.75 13.85 -2.1 0 0 -1
9.75 13 -1.25 0 -1 0
9.65 13.95 -2.1 0 0 -1
9.65 13 -1.15 0 -1 0
9.55 14.05 -2.1 0 0 -1
9.55 13 -1.05 0 -1 0
9.45 14.15 -2.1 0 0 -1
9.45 13 -0.95 0 -1 0
9.35 14.25 -2.1 0 0 -1
9.35 13 -0.85 0 -1 0
9.25 14.35 -2.1 0 0 -1
9.25 13 -0.75 0 -1 0
9.15 14.45 -2.1 0 0 -1
9.15 13 -0.65 0 -1 0
9.05 14.55 -2.1 0 0 -1
9.05 13 -0.55 0 -1 0
8.95 14.65 -2.1 0 0 -1
8.95 13 -0.45 0 -1 0
8.85 14.8 -2.05 0 1 0
8.85 14.75 -2.1 0 0 -1
8.85 13 -0.35 0 -1 0
8.75 14.8 -1.95 0 1 0
8.75 13 -0.25 0 -1 0
8.75 13.05 -0.2 0 0 1
8.65 14.8 -1.85 0 1 0
8.55 14.8 -1.75 0 1 0
8.55 13.1 -0.15 0 -1 0
8.55 13.15 -0.1 0 0 1
8.45 14.8 -1.65 0 1 0
8.35 14.8 -1.55 0 1 0
8.35 13.2 -0.05 0 -1 0
8.35 13.25 4.47035e-08 0 0 1
8.25 14.8 -1.45 0 1 0
8.15 14.8 -1.35 0 1 0
8.15 13.3 0.05 0 -1 0
8.15 13.35 0.1 0 0 1
8.05 14.8 -1.25 0 1 0
7.95 14.8 -1.15 0 1 0
7.95 13.4 0.15 0 -1 0
7.95 13.45 0.2 0 0 1
7.85 14.8 -1.05 0 1 0
7.75 14.8 -0.95 0 1 0
7.75 13.5 0.25 0 -1 0
7.75 13.55 0.3 0 0 1
7.65 14.8 -0.85 0 1 0
7.65 13.65 0.3 0 0 1
7.55 14.8 -0.75 0 1 0
7.45 14.8 -0.65 0 1 0
7.45 13.7 0.35 0 -1 0
7.45 13.75 0.4 0 0 1
7.35 14.8 -0.55 0 1 0
7.25 14.8 -0.45 0 1 0
7.25 13.8 0.45 0 -1 0
7.25 13.85 0.5 0 0 1
7.15 14.8 -0.35 0 1 0
7.05 14.8 -0.25 0 1 0
7.05 13.9 0.55 0 -1 0
7.05 13.95 0.6 0 0 1
6.95 14.8 -0.15 0 1 0
6.85 14.8 -0.05 0 1 0
6.85 14 0.65 0 -1 0
6.85 14.05 0.7 0 0 1
6.75 14.8 0.05 0 1 0
6.75 14.15 0.7 0 0 1
6.65 14.8 0.15 0 1 0
6.55 14.8 0.25 0 1 0
6.55 14.2 0.75 0 -1 0
6.55 14.25 0.8 0 0 1
6.45 14.8 0.35 0 1 0
6.35 14.8 0.45 0 1 0
6.35 14.3 0.85 0 -1 0
6.35 14.35 0.9 0 0 1
6.25 14.8 0.55 0 1 0
6.15 14.8 0.65 0 1 0
6.15 14.4 0.95 0 -1 0
6.15 14.45 1 0 0 1
6.05 14.8 0.75 0 1 0
5.95 14.8 0.85 0 1 0
5.95 14.5 1.05 0 -1 0
5.95 14.55 1.1 0 0 1
5.85 14.8 0.95 0 1 0
5.75 14.8 1.05 0 1 0
5.75 14.6 1.15 0 -1 0
5.75 14.65 1.2 0 0 1
5.65 14.8 1.15 0 1 0
5.65 14.75 1.2 0 0 1
10.65 13 -2.05 0 -1 0
10.65 13.05 -2.1 0 0 -1
10.55 13.15 -2.1 0 0 -1
10.55 13 -1.95 0 -1 0
10.45 13.25 -2.1 0 0 -1
10.45 13 -1.85 0 -1 0
10.35 13.35 -2.1 0 0 -1
10.35 13 -1.75 0 -1 0
10.25 13.45 -2.1 0 0 -1
10.25 13 -1.65 0 -1 0
10.15 13.55 -2.1 0 0 -1
10.15 13 -1.55 0 -1 0
10.05 13.65 -2.1 0 0 -1
10.05 13 -1.45 0 -1 0
9.95 13.75 -2.1 0 0 -1
9.95 13 -1.35 0 -1 0
9.85 13.85 -2.1 0 0 -1
9.85 13 -1.25 0 -1 0
9.75 13.95 -2.1 0 0 -1
9.75 13 -1.15 0 -1 0
9.65 14.05 -2.1 0 0 -1
9.65 13 -1.05 0 -1 0
9.55 14.15 -2.1 0 0 -1
9.55 13 -0.95 0 -1 0
9.45 14.25 -2.1 0 0 -1
9.45 13 -0.85 0 -1 0
9.35 14.35 -2.1 0 0 -1
9.35 13 -0.75 0 -1 0
9.25 14.45 -2.1 0 0 -1
9.25 13 -0.65 0 -1 0
9.15 14.55 -2.1 0 0 -1
9.15 13 -0.55 0 -1 0
9.05 14.65 -2.1 0 0 -1
9.05 13 -0.45 0 -1 0
8.95 14.8 -2.05 0 1 0
8.95 14.75 -2.1 0 0 -1
8.95 13 -0.35 0 -1 0
8.85 14.8 -1.95 0 1 0
8.85 13 -0.25 0 -1 0
8.85 13.05 -0.2 0 0 1
8.75 14.8 -1.85 0 1 0
8.65 14.8 -1.75 0 1 0
8.65 13.1 -0.15 0 -1 0
8.65 13.15 -0.1 0 0 1
8.55 14.8 -1.65 0 1 0
8.45 14.8 -1.55 0 1 0
8.45 13.2 -0.05 0 -1 0
8.45 13.25 4.47035e-08 0 0 1
8.35 14.8 -1.45 0 1 0
8.25 14.8 -1.35 0 1 0
8.25 13.3 0.05 0 -1 0
8.25 13.35 0.1 0 0 1
8.15 14.8 -1.25 0 1 0
8.05 14.8 -1.15 0 1 0
8.05 13.4 0.15 0 -1 0
8.05 13.45 0.2 0 0 1
7.95 14.8 -1.05 0 1 0
7.85 14.8 -0.95 0 1 0
7.85 13.5 0.25 0 -1 0
7.85 13.55 0.3 0 0 1
7.75 14.8 -0.85 0 1 0
7.75 13.65 0.3 0 0 1
7.65 14.8 -0.75 0 1 0
7.55 14.8 -0.65 0 1 0
7.55 13.7 0.35 0 -1 0
7.55 13.75 0.4 0 0 1
7.45 14.8 -0.55 0 1 0
7.35 14.8 -0.45 0 1 0
7.35 13.8 0.45 0 -1 0
7.35 13.85 0.5 0 0 1
7.25 14.8 -0.35 0 1 0
7.15 14.8 -0.25 0 1 0
7.15 13.9 0.55 0 -1 0
7.15 13.95 0.6 0 0 1
7.05 14.8 -0.15 0 1 0
6.95 14.8 -0.05 0 1 0
6.95 14 0.65 0 -1 0
6.95 14.05 0.7 0 0 1
6.85 14.8 0.05 0 1 0
6.85 14.15 0.7 0 0 1
6.75 14.8 0.15 0 1 0
6.65 14.8 0.25 0 1 0
6.65 14.2 0.75 0 -1 0
6.65 14.25 0.8 0 0 1
6.55 14.8 0.35 0 1 0
6.45 14.8 0.45 0 1 0
6.45 14.3 0.85 0 -1 0
6.45 14.35 0.9 0 0 1
6.35 14.8 0.55 0 1 0
6.25 14.8 0.65 0 1 0
6.25 14.4 0.95 0 -1 0
6.25 14.45 1 0 0 1
6.15 14.8 0.75 0 1 0
6.05 14.8 0.85 0 1 0
6.05 14.5 1.05 0 -1 0
6.05 14.55 1.1 0 0 1
5.95 14.8 0.95 0 1 0
5.85 14.8 1.05 0 1 0
5.85 14.6 1.15 0 -1 0
5.85 14.65 1.2 0 0 1
5.75 14.8 1.15 0 1 0
5.75 14.75 1.2 0 0 1
10.75 13 -2.05 0 -1 0
10.75 13.05 -2.1 0 0 -1
10.65 13.15 -2.1 0 0 -1
10.65 13 -1.95 0 -1 0
10.55 13.25 -2.1 0 0 -1
10.55 13 -1.85 0 -1 0
10.45 13.35 -2.1 0 0 -1
10.45 13 -1.75 0 -1 0
10.35 13.45 -2.1 0 0 -1
10.35 13 -1.65 0 -1 0
10.25 13.55 -2.1 0 0 -1
10.25 13 -1.55 0 -1 0
10.15 13.65 -2.1 0 0 -1
10.15 13 -1.45 0 -1 0
10.05 13.75 -2.1 0 0 -1
10.05 13 -1.35 0 -1 0
9.95 13.85 -2.1 0 0 -1
9.95 13 -1.25 0 -1 0
9.85 13.95 -2.1 0 0 -1
9.85 13 -1.15 0 -1 0
9.75 14.05 -2.1 0 0 -1
9.75 13 -1.05 0 -1 0
9.65 14.15 -2.1 0 0 -1
9.65 13 -0.95 0 -1 0
9.55 14.25 -2.1 0 0 -1
9.55 13 -0.85 0 -1 0
9.45 14.35 -2.1 0 0 -1
9.45 13 -0.75 0 -1 0
9.35 14.45 -2.1 0 0 -1
9.35 13 -0.65 0 -1 0
9.25 14.55 -2.1 0 0 -1
9.25 13 -0.55 0 -1 0
9.15 14.65 -2.1 0 0 -1
9.15 13 -0.45 0 -1 0
9.05 14.8 -2.05 0 1 0
9.05 14.75 -2.1 0 0 -1
9.05 13 -0.35 0 -1 0
8.95 14.8 -1.95 0 1 0
8.95 13 -0.25 0 -1 0
8.95 13.05 -0.2 0 0 1
8.85 14.8 -1.85 0 1 0
8.75 14.8 -1.75 0 1 0
8.75 13.1 -0.15 0 -1 0
8.75 13.15 -0.1 0 0 1
8.65 14.8 -1.65 0 1 0
8.55 14.8 -1.55 0 1 0
8.55 13.2 -0.05 0 -1 0
8.55 13.25 4.47035e-08 0 0 1
8.45 14.8 -1.45 0 1 0
8.35 14.8 -1.35 0 1 0
8.35 13.3 0.05 0 -1 0
8.35 13.35 0.1 0 0 1
8.25 14.8 -1.25 0 1 0
8.15 14.8 -1.15 0 1 0
8.15 13.4 0.15 0 -1 0
8.15 13.45 0.2 0 0 1
8.05 14.8 -1.05 0 1 0
7.95 14.8 -0.95 0 1 0
7.95 13.5 0.25 0 -1 0
7.95 13.55 0.3 0 0 1
7.85 14.8 -0.85 0 1 0
7.85 13.65 0.3 0 0 1
7.75 14.8 -0.75 0 1 0
7.65 14.8 -0.65 0 1 0
7.65 13.7 0.35 0 -1 0
7.65 13.75 0.4 0 0 1
7.55 14.8 -0.55 0 1 0
7.45 14.8 -0.45 0 1 0
7.45 13.8 0.45 0 -1 0
7.45 13.85 0.5 0 0 1
7.35 14.8 -0.35 0 1 0
7.25 14.8 -0.25 0 1 0
7.25 13.9 0.55 0 -1 0
7.25 13.95 0.6 0 0 1
7.15 14.8 -0.15 0 1 0
7.05 14.8 -0.05 0 1 0
7.05 14 0.65 0 -1 0
7.05 14.05 0.7 0 0 1
6.95 14.8 0.05 0 1 0
6.95 14.15 0.7 0 0 1
6.85 14.8 0.15 0 1 0
6.75 14.8 0.25 0 1 0
6.75 14.2 0.75 0 -1 0
6.75 14.25 0.8 0 0 1
6.65 14.8 0.35 0 1 0
6.55 14.8 0.45 0 1 0
6.55 14.3 0.85 0 -1 0
6.55 14.35 0.9 0 0 1
6.45 14.8 0.55 0 1 0
6.35 14.8 0.65 0 1 0
6.35 14.4 0.95 0 -1 0
6.35 14.45 1 0 0 1
6.25 14.8 0.75 0 1 0
6.15 14.8 0.85 0 1 0
6.15 14.5 1.05 0 -1 0
6.15 14.55 1.1 0 0 1
6.05 14.8 0.95 0 1 0
5.95 14.8 1.05 0 1 0
5.95 14.6 1.15 0 -1 0
5.95 14.65 1.2 0 0 1
5.85 14.8 1.15 0 1 0
5.85 14.75 1.2 0 0 1
10.85 13 -2.05 0 -1 0
10.85 13.05 -2.1 0 0 -1
10.75 13.15 -2.1 0 0 -1
10.75 13 -1.95 0 -1 0
10.65 13.25 -2.1 0 0 -1
10.65 13 -1.85 0 -1 0
10.55 13.35 -2.1 0 0 -1
10.55 13 -1.75 0 -1 0
10.45 13.45 -2.1 0 0 -1
10.45 13 -1.65 0 -1 0
10.35 13.55 -2.1 0 0 -1
10.35 13 -1.55 0 -1 0
10.25 13.65 -2.1 0 0 -1
10.25 13 -1.45 0 -1 0
10.15 13.75 -2.1 0 0 -1
10.15 13 -1.35 0 -1 0
10.05 13.85 -2.1 0 0 -1
10.05 13 -1.25 0 -1 0
9.95 13.95 -2.1 0 0 -1
9.95 13 -1.15 0 -1 0
9.85 14.05 -2.1 0 0 -1
9.85 13 -1.05 0 -1 0
9.75 14.15 -2.1 0 0 -1
9.75 13 -0.95 0 -1 0
9.65 14.25 -2.1 0 0 -1
9.65 13 -0.85 0 -1 0
9.55 14.35 -2.1 0 0 -1
9.55 13 -0.75 0 -1 0
9.45 14.45 -2.1 0 0 -1
9.45 13 -0.65 0 -1 0
9.35 14.55 -2.1 0 0 -1
9.35 13 -0.55 0 -1 0
9.25 14.65 -2.1 0 0 -1
9.25 13 -0.45 0 -1 0
9.15 14.8 -2.05 0 1 0
9.15 14.75 -2.1 0 0 -1
9.15 13 -0.35 0 -1 0
9.05 14.8 -1.95 0 1 0
9.05 13 -0.25 0 -1 0
9.05 13.05 -0.2 0 0 1
8.95 14.8 -1.85 0 1 0
8.85 14.8 -1.75 0 1 0
8.85 13.1 -0.15 0 -1 0
8.85 13.15 -0.1 0 0 1
8.75 14.8 -1.65 0 1 0
8.65 14.8 -1.55 0 1 0
8.65 13.2 -0.05 0 -1 0
8.65 13.25 4.47035e-08 0 0 1
8.55 14.8 -1.45 0 1 0
8.45 14.8 -1.35 0 1 0
8.45 13.3 0.05 0 -1 0
8.45 13.35 0.1 0 0 1
8.35 14.8 -1.25 0 1 0
8.25 14.8 -1.15 0 1 0
8.25 13.4 0.15 0 -1 0
8.25 13.45 0.2 0 0 1
8.15 14.8 -1.05 0 1 0
8.05 14.8 -0.95 0 1 0
8.05 13.5 0.25 0 -1 0
8.05 13.55 0.3 0 0 1
7.95 14.8 -0.85 0 1 0
7.95 13.65 0.3 0 0 1
7.85 14.8 -0.75 0 1 0
7.75 14.8 -0.65 0 1 0
7.75 13.7 0.35 0 -1 0
7.75 13.75 0.4 0 0 1
7.65 14.8 -0.55 0 1 0
7.55 14.8 -0.45 0 1 0
7.55 13.8 0.45 0 -1 0
7.55 13.85 0.5 0 0 1
7.45 14.8 -0.35 0 1 0
7.35 14.8 -0.25 0 1 0
7.35 13.9 0.55 0 -1 0
7.35 13.95 0.6 0 0 1
7.25 14.8 -0.15 0 1 0
7.15 14.8 -0.05 0 1 0
7.15 14 0.65 0 -1 0
7.15 14.05 0.7 0 0 1
7.05 14.8 0.05 0 1 0
7.05 14.15 0.7 0 0 1
6.95 14.8 0.15 0 1 0
6.85 14.8 0.25 0 1 0
6.85 14.2 0.75 0 -1 0
6.85 14.25 0.8 0 0 1
6.75 14.8 0.35 0 1 0
6.65 14.8 0.45 0 1 0
6.65 14.3 0.85 0 -1 0
6.65 14.35 0.9 0 0 1
6.55 14.8 0.55 0 1 0
6.45 14.8 0.65 0 1 0
6.45 14.4 0.95 0 -1 0
6.45 14.45 1 0 0 1
6.35 14.8 0.75 0 1 0
6.25 14.8 0.85 0 1 0
6.25 14.5 1.05 0 -1 0
6.25 14.55 1.1 0 0 1
6.15 14.8 0.95 0 1 0
6.05 14.8 1.05 0 1 0
6.05 14.6 1.15 0 -1 0
6.05 14.65 1.2 0 0 1
5.95 14.8 1.15 0 1 0
5.95 14.75 1.2 0 0 1
10.95 13 -2.05 0 -1 0
10.95 13.05 -2.1 0 0 -1
10.85 13.15 -2.1 0 0 -1
10.85 13 -1.95 0 -1 0
10.75 13.25 -2.1 0 0 -1
10.75 13 -1.85 0 -1 0
10.65 13.35 -2.1 0 0 -1
10.65 13 -1.75 0 -1 0
10.55 13.45 -2.1 0 0 -1
10.55 13 -1.65 0 -1 0
10.45 13.55 -2.1 0 0 -1
10.45 13 -1.55 0 -1 0
10.35 13.65 -2.1 0 0 -1
10.35 13 -1.45 0 -1 0
10.25 13.75 -2.1 0 0 -1
10.25 13 -1.35 0 -1 0
10.15 13.85 -2.1 0 0 -1
10.15 13 -1.25 0 -1 0
10.05 13.95 -2.1 0 0 -1
10.05 13 -1.15 0 -1 0
9.95 14.05 -2.1 0 0 -1
9.95 13 -1.05 0 -1 0
9.85 14.15 -2.1 0 0 -1
9.85 13 -0.95 0 -1 0
9.75 14.25 -2.1 0 0 -1
9.75 13 -0.85 0 -1 0
9.65 14.35 -2.1 0 0 -1
9.65 13 -0.75 0 -1 0
9.55 14.45 -2.1 0 0 -1
9.55 13 -0.65 0 -1 0
9.45 14.55 -2.1 0 0 -1
9.45 13 -0.55 0 -1 0
9.35 14.65 -2.1 0 0 -1
9.35 13 -0.45 0 -1 0
9.25 14.8 -2.05 0 1 0
9.25 14.75 -2.1 0 0 -1
9.25 13 -0.35 0 -1 0
9.15 14.8 -1.95 0 1 0
9.15 13 -0.25 0 -1 0
9.15 13.05 -0.2 0 0 1
9.05 14.8 -1.85 0 1 0
8.95 14.8 -1.75 0 1 0
8.95 13.1 -0.15 0 -1 0
8.95 13.15 -0.1 0 0 1
8.85 14.8 -1.65 0 1 0
8.75 14.8 -1.55 0 1 0
8.75 13.2 -0.05 0 -1 0
8.75 13.25 4.47035e-08 0 0 1
8.65 14.8 -1.45 0 1 0
8.55 14.8 -1.35 0 1 0
8.55 13.3 0.05 0 -1 0
8.55 13.35 0.1 0 0 1
8.45 14.8 -1.25 0 1 0
8.35 14.8 -1.15 0 1 0
8.35 13.4 0.15 0 -1 0
8.35 13.45 0.2 0 0 1
8.25 14.8 -1.05 0 1 0
8.15 14.8 -0.95 0 1 0
8.15 13.5 0.25 0 -1 0
8.15 13.55 0.3 0 0 1
8.05 14.8 -0.85 0 1 0
8.05 13.65 0.3 0 0 1
7.95 14.8 -0.75 0 1 0
7.85 14.8 -0.65 0 1 0
7.85 13.7 0.35 0 -1 0
7.85 13.75 0.4 0 0 1
7.75 14.8 -0.55 0 1 0
7.65 14.8 -0.45 0 1 0
7.65 13.8 0.45 0 -1 0
7.65 13.85 0.5 0 0 1
7.55 14.8 -0.35 0 1 0
7.45 14.8 -0.25 0 1 0
7.45 13.9 0.55 0 -1 0
7.45 13.95 0.6 0 0 1
7.35 14.8 -0.15 0 1 0
7.25 14.8 -0.05 0 1 0
7.25 14 0.65 0 -1 0
7.25 14.05 0.7 0 0 1
7.15 14.8 0.05 0 1 0
7.15 14.15 0.7 0 0 1
7.05 14.8 0.15 0 1 0
6.95 14.8 0.25 0 1 0
6.95 14.2 0.75 0 -1 0
6.95 14.25 0.8 0 0 1
6.85 14.8 0.35 0 1 0
6.75 14.8 0.45 0 1 0
6.75 14.3 0.85 0 -1 0
6.75 14.35 0.9 0 0 1
6.65 14.8 0.55 0 1 0
6.55 14.8 0.65 0 1 0
6.55 14.4 0.95 0 -1 0
6.55 14.45 1 0 0 1
6.45 14.8 0.75 0 1 0
6.35 14.8 0.85 0 1 0
6.35 14.5 1.05 0 -1 0
6.35 14.55 1.1 0 0 1
6.25 14.8 0.95 0 1 0
6.15 14.8 1.05 0 1 0
6.15 14.6 1.15 0 -1 0
6.15 14.65 1.2 0 0 1
6.05 14.8 1.15 0 1 0
6.05 14.75 1.2 0 0 1
11.05 13 -2.05 0 -1 0
11.05 13.05 -2.1 0 0 -1
10.95 13.15 -2.1 0 0 -1
10.95 13 -1.95 0 -1 0
10.85 13.25 -2.1 0 0 -1
10.85 13 -1.85 0 -1 0
10.75 13.35 -2.1 0 0 -1
10.75 13 -1.75 0 -1 0
10.65 13.45 -2.1 0 0 -1
10.65 13 -1.65 0 -1 0
10.55 13.55 -2.1 0 0 -1
10.55 13 -1.55 0 -1 0
10.45 13.65 -2.1 0 0 -1
10.45 13 -1.45 0 -1 0
10.35 13.75 -2.1 0 0 -1
10.35 13 -1.35 0 -1 0
10.25 13.85 -2.1 0 0 -1
10.25 13 -1.25 0 -1 0
10.15 13.95 -2.1 0 0 -1
10.15 13 -1.15 0 -1 0
10.05 14.05 -2.1 0 0 -1
10.05 13 -1.05 0 -1 0
9.95 14.15 -2.1 0 0 -1
9.95 13 -0.95 0 -1 0
9.85 14.25 -2.1 0 0 -1
9.85 13 -0.85 0 -1 0
9.75 14.35 -2.1 0 0 -1
9.75 13 -0.75 0 -1 0
9.65 14.45 -2.1 0 0 -1
9.65 13 -0.65 0 -1 0
9.55 14.55 -2.1 0 0 -1
9.55 13 -0.55 0 -1 0
9.45 14.65 -2.1 0 0 -1
9.45 13 -0.45 0 -1 0
9.35 14.8 -2.05 0 1 0
9.35 14.75 -2.1 0 0 -1
9.35 13 -0.35 0 -1 0
9.25 14.8 -1.95 0 1 0
9.25 13 -0.25 0 -1 0
9.25 13.05 -0.2 0 0 1
9.15 14.8 -1.85 0 1 0
9.05 14.8 -1.75 0 1 0
9.05 13.1 -0.15 0 -1 0
9.05 13.15 -0.1 0 0 1
8.95 14.8 -1.65 0 1 0
8.85 14.8 -1.55 0 1 0
8.85 13.2 -0.05 0 -1 0
8.85 13.25 4.47035e-08 0 0 1
8.75 14.8 -1.45 0 1 0
8.65 14.8 -1.35 0 1 0
8.65 13.3 0.05 0 -1 0
8.65 13.35 0.1 0 0 1
8.55 14.8 -1.25 0 1 0
8.45 14.8 -1.15 0 1 0
8.45 13.4 0.15 0 -1 0
8.45 13.45 0.2 0 0 1
8.35 14.8 -1.05 0 1 0
8.25 14.8 -0.95 0 1 0
8.25 13.5 0.25 0 -1 0
8.25 13.55 0.3 0 0 1
8.15 14.8 -0.85 0 1 0
8.15 13.65 0.3 0 0 1
8.05 14.8 -0.75 0 1 0
7.95 14.8 -0.65 0 1 0
7.95 13.7 0.35 0 -1 0
7.95 13.75 0.4 0 0 1
7.85 14.8 -0.55 0 1 0
7.75 14.8 -0.45 0 1 0
7.75 13.8 0.45 0 -1 0
7.75 13.85 0.5 0 0 1
7.65 14.8 -0.35 0 1 0
7.55 14.8 -0.25 0 1 0
7.55 13.9 0.55 0 -1 0
7.55 13.95 0.6 0 0 1
7.45 14.8 -0.15 0 1 0
7.35 14.8 -0.05 0 1 0
7.35 14 0.65 0 -1 0
7.35 14.05 0.7 0 0 1
7.25 14.8 0.05 0 1 0
7.25 14.15 0.7 0 0 1
7.15 14.8 0.15 0 1 0
7.05 14.8 0.25 0 1 0
7.05 14.2 0.75 0 -1 0
7.05 14.25 0.8 0 0 1
6.95 14.8 0.35 0 1 0
6.85 14.8 0.45 0 1 0
6.85 14.3 0.85 0 -1 0
6.85 14.35 0.9 0 0 1
6.75 14.8 0.55 0 1 0
6.65 14.8 0.65 0 1 0
6.65 14.4 0.95 0 -1 0
6.65 14.45 1 0 0 1
6.55 14.8 0.75 0 1 0
6.45 14.8 0.85 0 1 0
6.45 14.5 1.05 0 -1 0
6.45 14.55 1.1 0 0 1
6.35 14.8 0.95 0 1 0
6.25 14.8 1.05 0 1 0
6.25 14.6 1.15 0 -1 0
6.25 14.65 1.2 0 0 1
6.15 14.8 1.15 0 1 0
6.15 14.75 1.2 0 0 1
11.15 13 -2.05 0 -1 0
11.15 13.05 -2.1 0 0 -1
11.05 13.15 -2.1 0 0 -1
11.05 13 -1.95 0 -1 0
10.95 13.25 -2.1 0 0 -1
10.95 13 -1.85 0 -1 0
10.85 13.35 -2.1 0 0 -1
10.85 13 -1.75 0 -1 0
10.75 13.45 -2.1 0 0 -1
10.75 13 -1.65 0 -1 0
10.65 13.55 -2.1 0 0 -1
10.65 13 -1.55 0 -1 0
10.55 13.65 -2.1 0 0 -1
10.55 13 -1.45 0 -1 0
10.45 13.75 -2.1 0 0 -1
10.45 13 -1.35 0 -1 0
10.35 13.85 -2.1 0 0 -1
10.35 13 -1.25 0 -1 0
10.25 13.95 -2.1 0 0 -1
10.25 13 -1.15 0 -1 0
10.15 14.05 -2.1 0 0 -1
10.15 13 -1.05 0 -1 0
10.05 14.15 -2.1 0 0 -1
10.05 13 -0.95 0 -1 0
9.95 14.25 -2.1 0 0 -1
9.95 13 -0.85 0 -1 0
9.85 14.35 -2.1 0 0 -1
9.85 13 -0.75 0 -1 0
9.75 14.45 -2.1 0 0 -1
9.75 13 -0.65 0 -1 0
9.65 14.55 -2.1 0 0 -1
9.65 13 -0.55 0 -1 0
9.55 14.65 -2.1 0 0 -1
9.55 13 -0.45 0 -1 0
9.45 14.8 -2.05 0 1 0
9.45 14.75 -2.1 0 0 -1
9.45 13 -0.35 0 -1 0
9.35 14.8 -1.95 0 1 0
9.35 13 -0.25 0 -1 0
9.35 13.05 -0.2 0 0 1
9.25 14.8 -1.85 0 1 0
9.15 14.8 -1.75 0 1 0
9.15 13.1 -0.15 0 -1 0
9.15 13.15 -0.1 0 0 1
9.05 14.8 -1.65 0 1 0
8.95 14.8 -1.55 0 1 0
8.95 13.2 -0.05 0 -1 0
8.95 13.25 4.47035e-08 0 0 1
8.85 14.8 -1.45 0 1 0
8.75 14.8 -1.35 0 1 0
8.75 13.3 0.05 0 -1 0
8.75 13.35 0.1 0 0 1
8.65 14.8 -1.25 0 1 0
8.55 14.8 -1.15 0 1 0
8.55 13.4 0.15 0 -1 0
8.55 13.45 0.2 0 0 1
8.45 14.8 -1.05 0 1 0
8.35 14.8 -0.95 0 1 0
8.35 13.5 0.25 0 -1 0
8.35 13.55 0.3 0 0 1
8.25 14.8 -0.85 0 1 0
8.25 13.65 0.3 0 0 1
8.15 14.8 -0.75 0 1 0
8.05 14.8 -0.65 0 1 0
8.05 13.7 0.35 0 -1 0
8.05 13.75 0.4 0 0 1
7.95 14.8 -0.55 0 1 0
7.85 14.8 -0.45 0 1 0
7.85 13.8 0.45 0 -1 0
7.85 13.85 0.5 0 0 1
7.75 14.8 -0.35 0 1 0
7.65 14.8 -0.25 0 1 0
7.65 13.9 0.55 0 -1 0
7.65 13.95 0.6 0 0 1
7.55 14.8 -0.15 0 1 0
7.45 14.8 -0.05 0 1 0
7.45 14 0.65 0 -1 0
7.45 14.05 0.7 0 0 1
7.35 14.8 0.05 0 1 0
7.35 14.15 0.7 0 0 1
7.25 14.8 0.15 0 1 0
7.15 14.8 0.25 0 1 0
7.15 14.2 0.75 0 -1 0
7.15 14.25 0.8 0 0 1
7.05 14.8 0.35 0 1 0
6.95 14.8 0.45 0 1 0
6.95 14.3 0.85 0 -1 0
6.95 14.35 0.9 0 0 1
6.85 14.8 0.55 0 1 0
6.75 14.8 0.65 0 1 0
6.75 14.4 0.95 0 -1 0
6.75 14.45 1 0 0 1
6.65 14.8 0.75 0 1 0
6.55 14.8 0.85 0 1 0
6.55 14.5 1.05 0 -1 0
6.55 14.55 1.1 0 0 1
6.45 14.8 0.95 0 1 0
6.35 14.8 1.05 0 1 0
6.35 14.6 1.15 0 -1 0
6.35 14.65 1.2 0 0 1
6.25 14.8 1.15 0 1 0
6.25 14.75 1.2 0 0 1
11.25 13 -2.05 0 -1 0
11.25 13.05 -2.1 0 0 -1
11.15 13.15 -2.1 0 0 -1
11.15 13 -1.95 0 -1 0
11.05 13.25 -2.1 0 0 -1
11.05 13 -1.85 0 -1 0
10.95 13.35 -2.1 0 0 -1
10.95 13 -1.75 0 -1 0
10.85 13.45 -2.1 0 0 -1
10.85 13 -1.65 0 -1 0
10.75 13.55 -2.1 0 0 -1
10.75 13 -1.55 0 -1 0
10.65 13.65 -2.1 0 0 -1
10.65 13 -1.45 0 -1 0
10.55 13.75 -2.1 0 0 -1
10.55 13 -1.35 0 -1 0
10.45 13.85 -2.1 0 0 -1
10.45 13 -1.25 0 -1 0
10.35 13.95 -2.1 0 0 -1
10.35 13 -1.15 0 -1 0
10.25 14.05 -2.1 0 0 -1
10.25 13 -1.05 0 -1 0
10.15 14.15 -2.1 0 0 -1
10.15 13 -0.95 0 -1 0
10.05 14.25 -2.1 0 0 -1
10.05 13 -0.85 0 -1 0
9.95 14.35 -2.1 0 0 -1
9.95 13 -0.75 0 -1 0
9.85 14.45 -2.1 0 0 -1
9.85 13 -0.65 0 -1 0
9.75 14.55 -2.1 0 0 -1
9.75 13 -0.55 0 -1 0
9.65 14.65 -2.1 0 0 -1
9.65 13 -0.45 0 -1 0
9.55 14.8 -2.05 0 1 0
9.55 14.75 -2.1 0 0 -1
9.55 13 -0.35 0 -1 0
9.45 14.8 -1.95 0 1 0
9.45 13 -0.25 0 -1 0
9.45 13.05 -0.2 0 0 1
9.35 14.8 -1.85 0 1 0
9.25 14.8 -1.75 0 1 0
9.25 13.1 -0.15 0 -1 0
9.25 13.15 -0.1 0 0 1
9.15 14.8 -1.65 0 1 0
9.05 14.8 -1.55 0 1 0
9.05 13.2 -0.05 0 -1 0
9.05 13.25 4.47035e-08 0 0 1
8.95 14.8 -1.45 0 1 0
8.85 14.8 -1.35 0 1 0
8.85 13.3 0.05 0 -1 0
8.85 13.35 0.1 0 0 1
8.75 14.8 -1.25 0 1 0
8.65 14.8 -1.15 0 1 0
8.65 13.4 0.15 0 -1 0
8.65 13.45 0.2 0 0 1
8.55 14.8 -1.05 0 1 0
8.45 14.8 -0.95 0 1 0
8.45 13.5 0.25 0 -1 0
8.45 13.55 0.3 0 0 1
8.35 14.8 -0.85 0 1 0
8.35 13.65 0.3 0 0 1
8.25 14.8 -0.75 0 1 0
8.15 14.8 -0.65 0 1 0
8.15 13.7 0.35 0 -1 0
8.15 13.75 0.4 0 0 1
8.05 14.8 -0.55 0 1 0
7.95 14.8 -0.45 0 1 0
7.95 13.8 0.45 0 -1 0
7.95 13.85 0.5 0 0 1
7.85 14.8 -0.35 0 1 0
7.75 14.8 -0.25 0 1 0
7.75 13.9 0.55 0 -1 0
7.75 13.95 0.6 0 0 1
7.65 14.8 -0.15 0 1 0
7.55 14.8 -0.05 0 1 0
7.55 14 0.65 0 -1 0
7.55 14.05 0.7 0 0 1
7.45 14.8 0.05 0 1 0
7.45 14.15 0.7 0 0 1
7.35 14.8 0.15 0 1 0
7.25 14.8 0.25 0 1 0
7.25 14.2 0.75 0 -1 0
7.25 14.25 0.8 0 0 1
7.15 14.8 0.35 0 1 0
7.05 14.8 0.45 0 1 0
7.05 14.3 0.85 0 -1 0
7.05 14.35 0.9 0 0 1
6.95 14.8 0.55 0 1 0
6.85 14.8 0.65 0 1 0
6.85 14.4 0.95 0 -1 0
6.85 14.45 1 0 0 1
6.75 14.8 0.75 0 1 0
6.65 14.8 0.85 0 1 0
6.65 14.5 1.05 0 -1 0
6.65 14.55 1.1 0 0 1
6.55 14.8 0.95 0 1 0
6.45 14.8 1.05 0 1 0
6.45 14.6 1.15 0 -1 0
6.45 14.65 1.2 0 0 1
6.35 14.8 1.15 0 1 0
6.35 14.75 1.2 0 0 1
11.35 13 -2.05 0 -1 0
11.35 13.05 -2.1 0 0 -1
11.25 13.15 -2.1 0 0 -1
11.25 13 -1.95 0 -1 0
11.15 13.25 -2.1 0 0 -1
11.15 13 -1.85 0 -1 0
11.05 13.35 -2.1 0 0 -1
11.05 13 -1.75 0 -1 0
10.95 13.45 -2.1 0 0 -1
10.95 13 -1.65 0 -1 0
10.85 13.55 -2.1 0 0 -1
10.85 13 -1.55 0 -1 0
10.75 13.65 -2.1 0 0 -1
10.75 13 -1.45 0 -1 0
10.65 13.75 -2.1 0 0 -1
10.65 13 -1.35 0 -1 0
10.55 13.85 -2.1 0 0 -1
10.55 13 -1.25 0 -1 0
10.45 13.95 -2.1 0 0 -1
10.45 13 -1.15 0 -1 0
10.35 14.05 -2.1 0 0 -1
10.35 13 -1.05 0 -1 0
10.25 14.15 -2.1 0 0 -1
10.25 13 -0.95 0 -1 0
10.15 14.25 -2.1 0 0 -1
10.15 13 -0.85 0 -1 0
10.05 14.35 -2.1 0 0 -1
10.05 13 -0.75 0 -1 0
9.95 14.45 -2.1 0 0 -1
9.95 13 -0.65 0 -1 0
9.85 14.55 -2.1 0 0 -1
9.85 13 -0.55 0 -1 0
9.75 14.65 -2.1 0 0 -1
9.75 13 -0.45 0 -1 0
9.65 14.8 -2.05 0 1 0
9.65 14.75 -2.1 0 0 -1
9.65 13 -0.35 0 -1 0
9.55 14.8 -1.95 0 1 0
9.55 13 -0.25 0 -1 0
9.55 13.05 -0.2 0 0 1
9.45 14.8 -1.85 0 1 0
9.35 14.8 -1.75 0 1 0
9.35 13.1 -0.15 0 -1 0
9.35 13.15 -0.1 0 0 1
9.25 14.8 -1.65 0 1 0
9.15 14.8 -1.55 0 1 0
9.15 13.2 -0.05 0 -1 0
9.15 13.25 4.47035e-08 0 0 1
9.05 14.8 -1.45 0 1 0
8.95 14.8 -1.35 0 1 0
8.95 13.3 0.05 0 -1 0
8.95 13.35 0.1 0 0 1
8.85 14.8 -1.25 0 1 0
8.75 14.8 -1.15 0 1 0
8.75 13.4 0.15 0 -1 0
8.75 13.45 0.2 0 0 1
8.65 14.8 -1.05 0 1 0
8.55 14.8 -0.95 0 1 0
8.55 13.5 0.25 0 -1 0
8.55 13.55 0.3 0 0 1
8.45 14.8 -0.85 0 1 0
8.45 13.65 0.3 0 0 1
8.35 14.8 -0.75 0 1 0
8.25 14.8 -0.65 0 1 0
8.25 13.7 0.35 0 -1 0
8.25 13.75 0.4 0 0 1
8.15 14.8 -0.55 0 1 0
8.05 14.8 -0.45 0 1 0
8.05 13.8 0.45 0 -1 0
8.05 13.85 0.5 0 0 1
7.95 14.8 -0.35 0 1 0
7.85 14.8 -0.25 0 1 0
7.85 13.9 0.55 0 -1 0
7.85 13.95 0.6 0 0 1
7.75 14.8 -0.15 0 1 0
7.65 14.8 -0.05 0 1 0
7.65 14 0.65 0 -1 0
7.65 14.05 0.7 0 0 1
7.55 14.8 0.05 0 1 0
7.55 14.15 0.7 0 0 1
7.45 14.8 0.15 0 1 0
7.35 14.8 0.25 0 1 0
7.35 14.2 0.75 0 -1 0
7.35 14.25 0.8 0 0 1
7.25 14.8 0.35 0 1 0
7.15 14.8 0.45 0 1 0
7.15 14.3 0.85 0 -1 0
7.15 14.35 0.9 0 0 1
7.05 14.8 0.55 0 1 0
6.95 14.8 0.65 0 1 0
6.95 14.4 0.95 0 -1 0
6.95 14.45 1 0 0 1
6.85 14.8 0.75 0 1 0
6.75 14.8 0.85 0 1 0
6.75 14.5 1.05 0 -1 0
6.75 14.55 1.1 0 0 1
6.65 14.8 0.95 0 1 0
6.55 14.8 1.05 0 1 0
6.55 14.6 1.15 0 -1 0
6.55 14.65 1.2 0 0 1
6.45 14.8 1.15 0 1 0
6.45 14.75 1.2 0 0 1
11.45 13 -2.05 0 -1 0
11.45 13.05 -2.1 0 0 -1
11.35 13.15 -2.1 0 0 -1
11.35 13 -1.95 0 -1 0
11.25 13.25 -2.1 0 0 -1
11.25 13 -1.85 0 -1 0
11.15 13.35 -2.1 0 0 -1
11.15 13 -1.75 0 -1 0
11.05 13.45 -2.1 0 0 -1
11.05 13 -1.65 0 -1 0
10.95 13.55 -2.1 0 0 -1
10.95 13 -1.55 0 -1 0
10.85 13.65 -2.1 0 0 -1
10.85 13 -1.45 0 -1 0
10.75 13.75 -2.1 0 0 -1
10.75 13 -1.35 0 -1 0
10.65 13.85 -2.1 0 0 -1
10.65 13 -1.25 0 -1 0
10.55 13.95 -2.1 0 0 -1
10.55 13 -1.15 0 -1 0
10.45 14.05 -2.1 0 0 -1
10.45 13 -1.05 0 -1 0
10.35 14.15 -2.1 0 0 -1
10.35 13 -0.95 0 -1 0
10.25 14.25 -2.1 0 0 -1
10.25 13 -0.85 0 -1 0
10.15 14.35 -2.1 0 0 -1
10.15 13 -0.75 0 -1 0
10.05 14.45 -2.1 0 0 -1
10.05 13 -0.65 0 -1 0
9.95 14.55 -2.1 0 0 -1
9.95 13 -0.55 0 -1 0
9.85 14.65 -2.1 0 0 -1
9.85 13 -0.45 0 -1 0
9.75 14.8 -2.05 0 1 0
9.75 14.75 -2.1 0 0 -1
9.75 13 -0.35 0 -1 0
9.65 14.8 -1.95 0 1 0
9.65 13 -0.25 0 -1 0
9.65 13.05 -0.2 0 0 1
9.55 14.8 -1.85 0 1 0
9.45 14.8 -1.75 0 1 0
9.45 13.1 -0.15 0 -1 0
9.45 13.15 -0.1 0 0 1
9.35 14.8 -1.65 0 1 0
9.25 14.8 -1.55 0 1 0
9.25 13.2 -0.05 0 -1 0
9.25 13.25 4.47035e-08 0 0 1
9.15 14.8 -1.45 0 1 0
9.05 14.8 -1.35 0 1 0
9.05 13.3 0.05 0 -1 0
9.05 13.35 0.1 0 0 1
8.95 14.8 -1.25 0 1 0
8.85 14.8 -1.15 0 1 0
8.85 13.4 0.15 0 -1 0
8.85 13.45 0.2 0 0 1
8.75 14.8 -1.05 0 1 0
8.65 14.8 -0.95 0 1 0
8.65 13.5 0.25 0 -1 0
8.65 13.55 0.3 0 0 1
8.55 14.8 -0.85 0 1 0
8.55 13.65 0.3 0 0 1
8.45 14.8 -0.75 0 1 0
8.35 14.8 -0.65 0 1 0
8.35 13.7 0.35 0 -1 0
8.35 13.75 0.4 0 0 1
8.25 14.8 -0.55 0 1 0
8.15 14.8 -0.45 0 1 0
8.15 13.8 0.45 0 -1 0
8.15 13.85 0.5 0 0 1
8.05 14.8 -0.35 0 1 0
7.95 14.8 -0.25 0 1 0
7.95 13.9 0.55 0 -1 0
7.95 13.95 0.6 0 0 1
7.85 14.8 -0.15 0 1 0
7.75 14.8 -0.05 0 1 0
7.75 14 0.65 0 -1 0
7.75 14.05 0.7 0 0 1
7.65 14.8 0.05 0 1 0
7.65 14.15 0.7 0 0 1
7.55 14.8 0.15 0 1 0
7.45 14.8 0.25 0 1 0
7.45 14.2 0.75 0 -1 0
7.45 14.25 0.8 0 0 1
7.35 14.8 0.35 0 1 0
7.25 14.8 0.45 0 1 0
7.25 14.3 0.85 0 -1 0
7.25 14.35 0.9 0 0 1
7.15 14.8 0.55 0 1 0
7.05 14.8 0.65 0 1 0
7.05 14.4 0.95 0 -1 0
7.05 14.45 1 0 0 1
6.95 14.8 0.75 0 1 0
6.85 14.8 0.85 0 1 0
6.85 14.5 1.05 0 -1 0
6.85 14.55 1.1 0 0 1
6.75 14.8 0.95 0 1 0
6.65 14.8 1.05 0 1 0
6.65 14.6 1.15 0 -1 0
6.65 14.65 1.2 0 0 1
6.55 14.8 1.15 0 1 0
6.55 14.75 1.2 0 0 1
11.55 13 -2.05 0 -1 0
11.55 13.05 -2.1 0 0 -1
11.45 13.15 -2.1 0 0 -1
11.45 13 -1.95 0 -1 0
11.35 13.25 -2.1 0 0 -1
11.35 13 -1.85 0 -1 0
11.25 13.35 -2.1 0 0 -1
11.25 13 -1.75 0 -1 0
11.15 13.45 -2.1 0 0 -1
11.15 13 -1.65 0 -1 0
11.05 13.55 -2.1 0 0 -1
11.05 13 -1.55 0 -1 0
10.95 13.65 -2.1 0 0 -1
10.95 13 -1.45 0 -1 0
10.85 13.75 -2.1 0 0 -1
10.85 13 -1.35 0 -1 0
10.75 13.85 -2.1 0 0 -1
10.75 13 -1.25 0 -1 0
10.65 13.95 -2.1 0 0 -1
10.65 13 -1.15 0 -1 0
10.55 14.05 -2.1 0 0 -1
10.55 13 -1.05 0 -1 0
10.45 14.15 -2.1 0 0 -1
10.45 13 -0.95 0 -1 0
10.35 14.25 -2.1 0 0 -1
10.35 13 -0.85 0 -1 0
10.25 14.35 -2.1 0 0 -1
10.25 13 -0.75 0 -1 0
10.15 14.45 -2.1 0 0 -1
10.15 13 -0.65 0 -1 0
10.05 14.55 -2.1 0 0 -1
10.05 13 -0.55 0 -1 0
9.95 14.65 -2.1 0 0 -1
9.95 13 -0.45 0 -1 0
9.85 14.8 -2.05 0 1 0
9.85 14.75 -2.1 0 0 -1
9.85 13 -0.35 0 -1 0
9.75 14.8 -1.95 0 1 0
9.75 13 -0.25 0 -1 0
9.75 13.05 -0.2 0 0 1
9.65 14.8 -1.85 0 1 0
9.55 14.8 -1.75 0 1 0
9.55 13.1 -0.15 0 -1 0
9.55 13.15 -0.1 0 0 1
9.45 14.8 -1.65 0 1 0
9.35 14.8 -1.55 0 1 0
9.35 13.2 -0.05 0 -1 0
9.35 13.25 4.47035e-08 0 0 1
9.25 14.8 -1.45 0 1 0
9.15 14.8 -1.35 0 1 0
9.15 13.3 0.05 0 -1 0
9.15 13.35 0.1 0 0 1
9.05 14.8 -1.25 0 1 0
8.95 14.8 -1.15 0 1 0
8.95 13.4 0.15 0 -1 0
8.95 13.45 0.2 0 0 1
8.85 14.8 -1.05 0 1 0
8.75 14.8 -0.95 0 1 0
8.75 13.5 0.25 0 -1 0
8.75 13.55 0.3 0 0 1
8.65 14.8 -0.85 0 1 0
8.65 13.65 0.3 0 0 1
8.55 14.8 -0.75 0 1 0
8.45 14.8 -0.65 0 1 0
8.45 13.7 0.35 0 -1 0
8.45 13.75 0.4 0 0 1
8.35 14.8 -0.55 0 1 0
8.25 14.8 -0.45 0 1 0
8.25 13.8 0.45 0 -1 0
8.25 13.85 0.5 0 0 1
8.15 14.8 -0.35 0 1 0
8.05 14.8 -0.25 0 1 0
8.05 13.9 0.55 0 -1 0
8.05 13.95 0.6 0 0 1
7.95 14.8 -0.15 0 1 0
