-0.95 14.55 -2.1 0 0 -1
-0.95 13 -0.55 0 -1 0
-1.05 14.65 -2.1 0 0 -1
-1.05 13 -0.45 0 -1 0
-1.15 14.8 -2.05 0 1 0
-1.15 14.75 -2.1 0 0 -1
-1.15 13 -0.35 0 -1 0
-1.25 14.8 -1.95 0 1 0
-1.25 13 -0.25 0 -1 0
-1.25 13.05 -0.2 0 0 1
-1.35 14.8 -1.85 0 1 0
-1.35 13.15 -0.2 0 0 1
-1.45 14.8 -1.75 0 1 0
-1.45 13.25 -0.2 0 0 1
-1.55 14.8 -1.65 0 1 0
-1.55 13.35 -0.2 0 0 1
-1.65 14.8 -1.55 0 1 0
-1.65 13.45 -0.2 0 0 1
-1.75 14.8 -1.45 0 1 0
-1.75 13.55 -0.2 0 0 1
-1.85 14.8 -1.35 0 1 0
-1.85 13.65 -0.2 0 0 1
-1.95 14.8 -1.25 0 1 0
-1.95 13.75 -0.2 0 0 1
-2.05 14.8 -1.15 0 1 0
-2.15 14.8 -1.05 0 1 0
-2.2 13.85 -0.15 -1 0 0
-2.15 13.8 -0.15 0 -1 0
-2.15 13.85 -0.1 0 0 1
-2.25 14.8 -0.95 0 1 0
-2.25 13.9 -0.15 0 -1 0
-2.25 13.95 -0.1 0 0 1
-2.35 14.8 -0.85 0 1 0
-2.45 14.8 -0.75 0 1 0
-2.55 14.8 -0.65 0 1 0
-2.6 14.15 -0.05 -1 0 0
-2.55 14.1 -0.05 0 -1 0
-2.55 14.15 4.47035e-08 0 0 1
-2.65 14.8 -0.55 0 1 0
-2.65 14.2 -0.05 0 -1 0
-2.65 14.25 4.47035e-08 0 0 1
-2.75 14.8 -0.45 0 1 0
-2.85 14.8 -0.35 0 1 0
-2.9 14.35 0.05 -1 0 0
-2.85 14.3 0.05 0 -1 0
-2.85 14.35 0.1 0 0 1
-2.95 14.8 -0.25 0 1 0
-2.95 14.4 0.05 0 -1 0
-2.95 14.45 0.1 0 0 1
-3.05 14.8 -0.15 0 1 0
-3.15 14.8 -0.05 0 1 0
-3.25 14.8 0.05 0 1 0
-3.3 14.65 0.15 -1 0 0
-3.25 14.6 0.15 0 -1 0
-3.25 14.65 0.2 0 0 1
-3.35 14.7 0.15 0 -1 0
-3.35 14.8 0.15 0 1 0
-3.35 14.75 0.2 0 0 1
7.45058e-08 13.75 -2.05 1 0 0
-0.0499999 13.75 -2.1 0 0 -1
7.45058e-08 13.65 -1.95 1 0 0
7.45058e-08 13.55 -1.85 1 0 0
7.45058e-08 13.45 -1.75 1 0 0
7.45058e-08 13.35 -1.65 1 0 0
7.45058e-08 13.25 -1.55 1 0 0
7.45058e-08 13.15 -1.45 1 0 0
7.45058e-08 13.05 -1.35 1 0 0
-0.0499999 13 -1.35 0 -1 0
-0.15 13.85 -2.1 0 0 -1
-0.15 13 -1.25 0 -1 0
-0.25 13.95 -2.1 0 0 -1
-0.25 13 -1.15 0 -1 0
-0.35 14.05 -2.1 0 0 -1
-0.35 13 -1.05 0 -1 0
-0.45 14.15 -2.1 0 0 -1
-0.45 13 -0.95 0 -1 0
-0.55 14.25 -2.1 0 0 -1
-0.55 13 -0.85 0 -1 0
-0.65 14.35 -2.1 0 0 -1
-0.65 13 -0.75 0 -1 0
-0.75 14.45 -2.1 0 0 -1
-0.75 13 -0.65 0 -1 0
-0.85 14.55 -2.1 0 0 -1
-0.85 13 -0.55 0 -1 0
-0.95 14.65 -2.1 0 0 -1
-0.95 13 -0.45 0 -1 0
-1.05 14.8 -2.05 0 1 0
-1.05 14.75 -2.1 0 0 -1
-1.05 13 -0.35 0 -1 0
-1.15 14.8 -1.95 0 1 0
-1.15 13 -0.25 0 -1 0
-1.15 13.05 -0.2 0 0 1
-1.25 14.8 -1.85 0 1 0
-1.25 13.15 -0.2 0 0 1
-1.35 14.8 -1.75 0 1 0
-1.35 13.25 -0.2 0 0 1
-1.45 14.8 -1.65 0 1 0
-1.45 13.35 -0.2 0 0 1
-1.55 14.8 -1.55 0 1 0
-1.55 13.45 -0.2 0 0 1
-1.65 14.8 -1.45 0 1 0
-1.65 13.55 -0.2 0 0 1
-1.75 14.8 -1.35 0 1 0
-1.75 13.65 -0.2 0 0 1
-1.85 14.8 -1.25 0 1 0
-1.95 14.8 -1.15 0 1 0
-2.05 14.8 -1.05 0 1 0
-2.05 13.8 -0.15 0 -1 0
-2.05 13.85 -0.1 0 0 1
-2.15 14.8 -0.95 0 1 0
-2.15 13.95 -0.1 0 0 1
-2.25 14.8 -0.85 0 1 0
-2.35 14.8 -0.75 0 1 0
-2.4 14.05 -0.05 -1 0 0
-2.35 14 -0.05 0 -1 0
-2.35 14.05 4.47035e-08 0 0 1
-2.45 14.8 -0.65 0 1 0
-2.45 14.1 -0.05 0 -1 0
-2.45 14.15 4.47035e-08 0 0 1
-2.55 14.8 -0.55 0 1 0
-2.65 14.8 -0.45 0 1 0
-2.75 14.8 -0.35 0 1 0
-2.75 14.3 0.05 0 -1 0
-2.75 14.35 0.1 0 0 1
-2.85 14.8 -0.25 0 1 0
-2.85 14.45 0.1 0 0 1
-2.95 14.8 -0.15 0 1 0
-3.05 14.8 -0.05 0 1 0
-3.1 14.55 0.15 -1 0 0
-3.05 14.5 0.15 0 -1 0
-3.05 14.55 0.2 0 0 1
-3.15 14.8 0.05 0 1 0
-3.15 14.6 0.15 0 -1 0
-3.15 14.65 0.2 0 0 1
-3.25 14.8 0.15 0 1 0
7.45058e-08 13.85 -2.05 1 0 0
-0.0499999 13.85 -2.1 0 0 -1
7.45058e-08 13.75 -1.95 1 0 0
7.45058e-08 13.65 -1.85 1 0 0
7.45058e-08 13.55 -1.75 1 0 0
7.45058e-08 13.45 -1.65 1 0 0
7.45058e-08 13.35 -1.55 1 0 0
7.45058e-08 13.25 -1.45 1 0 0
7.45058e-08 13.15 -1.35 1 0 0
7.45058e-08 13.05 -1.25 1 0 0
-0.0499999 13 -1.25 0 -1 0
-0.15 13.95 -2.1 0 0 -1
-0.15 13 -1.15 0 -1 0
-0.25 14.05 -2.1 0 0 -1
-0.25 13 -1.05 0 -1 0
-0.35 14.15 -2.1 0 0 -1
-0.35 13 -0.95 0 -1 0
-0.45 14.25 -2.1 0 0 -1
-0.45 13 -0.85 0 -1 0
-0.55 14.35 -2.1 0 0 -1
-0.55 13 -0.75 0 -1 0
-0.65 14.45 -2.1 0 0 -1
-0.65 13 -0.65 0 -1 0
-0.75 14.55 -2.1 0 0 -1
-0.75 13 -0.55 0 -1 0
-0.85 14.65 -2.1 0 0 -1
-0.85 13 -0.45 0 -1 0
-0.95 14.8 -2.05 0 1 0
-0.95 14.75 -2.1 0 0 -1
-0.95 13 -0.35 0 -1 0
-1.05 14.8 -1.95 0 1 0
-1.05 13 -0.25 0 -1 0
-1.05 13.05 -0.2 0 0 1
-1.15 14.8 -1.85 0 1 0
-1.15 13.15 -0.2 0 0 1
-1.25 14.8 -1.75 0 1 0
-1.25 13.25 -0.2 0 0 1
-1.35 14.8 -1.65 0 1 0
-1.35 13.35 -0.2 0 0 1
-1.45 14.8 -1.55 0 1 0
-1.45 13.45 -0.2 0 0 1
-1.55 14.8 -1.45 0 1 0
-1.55 13.55 -0.2 0 0 1
-1.65 14.8 -1.35 0 1 0
-1.65 13.65 -0.2 0 0 1
-1.75 14.8 -1.25 0 1 0
-1.85 14.8 -1.15 0 1 0
-1.9 13.75 -0.15 -1 0 0
-1.85 13.7 -0.15 0 -1 0
-1.85 13.75 -0.1 0 0 1
-1.95 14.8 -1.05 0 1 0
-1.95 13.8 -0.15 0 -1 0
-1.95 13.85 -0.1 0 0 1
-2.05 14.8 -0.95 0 1 0
-2.15 14.8 -0.85 0 1 0
-2.25 14.8 -0.75 0 1 0
-2.25 14 -0.05 0 -1 0
-2.25 14.05 4.47035e-08 0 0 1
-2.35 14.8 -0.65 0 1 0
-2.35 14.15 4.47035e-08 0 0 1
-2.45 14.8 -0.55 0 1 0
-2.55 14.8 -0.45 0 1 0
-2.6 14.25 0.05 -1 0 0
-2.55 14.2 0.05 0 -1 0
-2.55 14.25 0.1 0 0 1
-2.65 14.8 -0.35 0 1 0
-2.65 14.3 0.05 0 -1 0
-2.65 14.35 0.1 0 0 1
-2.75 14.8 -0.25 0 1 0
-2.85 14.8 -0.15 0 1 0
-2.95 14.8 -0.05 0 1 0
-2.95 14.5 0.15 0 -1 0
-2.95 14.55 0.2 0 0 1
-3.05 14.8 0.05 0 1 0
-3.05 14.65 0.2 0 0 1
-3.15 14.8 0.15 0 1 0
-3.3 14.75 0.25 -1 0 0
-3.25 14.7 0.25 0 -1 0
-3.25 14.8 0.25 0 1 0
-3.25 14.75 0.3 0 0 1
7.45058e-08 13.95 -2.05 1 0 0
-0.0499999 13.95 -2.1 0 0 -1
7.45058e-08 13.85 -1.95 1 0 0
7.45058e-08 13.75 -1.85 1 0 0
7.45058e-08 13.65 -1.75 1 0 0
7.45058e-08 13.55 -1.65 1 0 0
7.45058e-08 13.45 -1.55 1 0 0
7.45058e-08 13.35 -1.45 1 0 0
7.45058e-08 13.25 -1.35 1 0 0
7.45058e-08 13.15 -1.25 1 0 0
7.45058e-08 13.05 -1.15 1 0 0
-0.0499999 13 -1.15 0 -1 0
-0.15 14.05 -2.1 0 0 -1
-0.15 13 -1.05 0 -1 0
-0.25 14.15 -2.1 0 0 -1
-0.25 13 -0.95 0 -1 0
-0.35 14.25 -2.1 0 0 -1
-0.35 13 -0.85 0 -1 0
-0.45 14.35 -2.1 0 0 -1
-0.45 13 -0.75 0 -1 0
-0.55 14.45 -2.1 0 0 -1
-0.55 13 -0.65 0 -1 0
-0.65 14.55 -2.1 0 0 -1
-0.65 13 -0.55 0 -1 0
-0.75 14.65 -2.1 0 0 -1
-0.75 13 -0.45 0 -1 0
-0.85 14.8 -2.05 0 1 0
-0.85 14.75 -2.1 0 0 -1
-0.85 13 -0.35 0 -1 0
-0.95 14.8 -1.95 0 1 0
-0.95 13 -0.25 0 -1 0
-0.95 13.05 -0.2 0 0 1
-1.05 14.8 -1.85 0 1 0
-1.05 13.15 -0.2 0 0 1
-1.15 14.8 -1.75 0 1 0
-1.15 13.25 -0.2 0 0 1
-1.25 14.8 -1.65 0 1 0
-1.25 13.35 -0.2 0 0 1
-1.35 14.8 -1.55 0 1 0
-1.35 13.45 -0.2 0 0 1
-1.45 14.8 -1.45 0 1 0
-1.45 13.55 -0.2 0 0 1
-1.55 14.8 -1.35 0 1 0
-1.65 14.8 -1.25 0 1 0
-1.75 14.8 -1.15 0 1 0
-1.75 13.7 -0.15 0 -1 0
-1.75 13.75 -0.1 0 0 1
-1.85 14.8 -1.05 0 1 0
-1.85 13.85 -0.1 0 0 1
-1.95 14.8 -0.95 0 1 0
-2.05 14.8 -0.85 0 1 0
-2.1 13.95 -0.05 -1 0 0
-2.05 13.9 -0.05 0 -1 0
-2.05 13.95 4.47035e-08 0 0 1
-2.15 14.8 -0.75 0 1 0
-2.15 14 -0.05 0 -1 0
-2.15 14.05 4.47035e-08 0 0 1
-2.25 14.8 -0.65 0 1 0
-2.35 14.8 -0.55 0 1 0
-2.45 14.8 -0.45 0 1 0
-2.45 14.2 0.05 0 -1 0
-2.45 14.25 0.1 0 0 1
-2.55 14.8 -0.35 0 1 0
-2.55 14.35 0.1 0 0 1
-2.65 14.8 -0.25 0 1 0
-2.75 14.8 -0.15 0 1 0
-2.8 14.45 0.15 -1 0 0
-2.75 14.4 0.15 0 -1 0
-2.75 14.45 0.2 0 0 1
-2.85 14.8 -0.05 0 1 0
-2.85 14.5 0.15 0 -1 0
-2.85 14.55 0.2 0 0 1
-2.95 14.8 0.05 0 1 0
-3.05 14.8 0.15 0 1 0
-3.15 14.7 0.25 0 -1 0
-3.15 14.8 0.25 0 1 0
-3.15 14.75 0.3 0 0 1
7.45058e-08 14.05 -2.05 1 0 0
-0.0499999 14.05 -2.1 0 0 -1
7.45058e-08 13.95 -1.95 1 0 0
7.45058e-08 13.85 -1.85 1 0 0
7.45058e-08 13.75 -1.75 1 0 0
7.45058e-08 13.65 -1.65 1 0 0
7.45058e-08 13.55 -1.55 1 0 0
7.45058e-08 13.45 -1.45 1 0 0
7.45058e-08 13.35 -1.35 1 0 0
7.45058e-08 13.25 -1.25 1 0 0
7.45058e-08 13.15 -1.15 1 0 0
7.45058e-08 13.05 -1.05 1 0 0
-0.0499999 13 -1.05 0 -1 0
-0.15 14.15 -2.1 0 0 -1
-0.15 13 -0.95 0 -1 0
-0.25 14.25 -2.1 0 0 -1
-0.25 13 -0.85 0 -1 0
-0.35 14.35 -2.1 0 0 -1
-0.35 13 -0.75 0 -1 0
-0.45 14.45 -2.1 0 0 -1
-0.45 13 -0.65 0 -1 0
-0.55 14.55 -2.1 0 0 -1
-0.55 13 -0.55 0 -1 0
-0.65 14.65 -2.1 0 0 -1
-0.65 13 -0.45 0 -1 0
-0.75 14.8 -2.05 0 1 0
-0.75 14.75 -2.1 0 0 -1
-0.75 13 -0.35 0 -1 0
-0.85 14.8 -1.95 0 1 0
-0.85 13 -0.25 0 -1 0
-0.85 13.05 -0.2 0 0 1
-0.95 14.8 -1.85 0 1 0
-0.95 13.15 -0.2 0 0 1
-1.05 14.8 -1.75 0 1 0
-1.05 13.25 -0.2 0 0 1
-1.15 14.8 -1.65 0 1 0
-1.15 13.35 -0.2 0 0 1
-1.25 14.8 -1.55 0 1 0
-1.25 13.45 -0.2 0 0 1
-1.35 14.8 -1.45 0 1 0
-1.35 13.55 -0.2 0 0 1
-1.45 14.8 -1.35 0 1 0
-1.55 14.8 -1.25 0 1 0
-1.6 13.65 -0.15 -1 0 0
-1.55 13.6 -0.15 0 -1 0
-1.55 13.65 -0.1 0 0 1
-1.65 14.8 -1.15 0 1 0
-1.65 13.7 -0.15 0 -1 0
-1.65 13.75 -0.1 0 0 1
-1.75 14.8 -1.05 0 1 0
-1.85 14.8 -0.95 0 1 0
-1.95 14.8 -0.85 0 1 0
-1.95 13.9 -0.05 0 -1 0
-1.95 13.95 4.47035e-08 0 0 1
-2.05 14.8 -0.75 0 1 0
-2.05 14.05 4.47035e-08 0 0 1
-2.15 14.8 -0.65 0 1 0
-2.25 14.8 -0.55 0 1 0
-2.3 14.15 0.05 -1 0 0
-2.25 14.1 0.05 0 -1 0
-2.25 14.15 0.1 0 0 1
-2.35 14.8 -0.45 0 1 0
-2.35 14.2 0.05 0 -1 0
-2.35 14.25 0.1 0 0 1
-2.45 14.8 -0.35 0 1 0
-2.55 14.8 -0.25 0 1 0
-2.65 14.8 -0.15 0 1 0
-2.65 14.4 0.15 0 -1 0
-2.65 14.45 0.2 0 0 1
-2.75 14.8 -0.05 0 1 0
-2.75 14.55 0.2 0 0 1
-2.85 14.8 0.05 0 1 0
-2.95 14.8 0.15 0 1 0
-3 14.65 0.25 -1 0 0
-2.95 14.6 0.25 0 -1 0
-2.95 14.65 0.3 0 0 1
-3.05 14.7 0.25 0 -1 0
-3.05 14.8 0.25 0 1 0
-3.05 14.75 0.3 0 0 1
7.45058e-08 14.15 -2.05 1 0 0
-0.0499999 14.15 -2.1 0 0 -1
7.45058e-08 14.05 -1.95 1 0 0
7.45058e-08 13.95 -1.85 1 0 0
7.45058e-08 13.85 -1.75 1 0 0
7.45058e-08 13.75 -1.65 1 0 0
7.45058e-08 13.65 -1.55 1 0 0
7.45058e-08 13.55 -1.45 1 0 0
7.45058e-08 13.45 -1.35 1 0 0
7.45058e-08 13.35 -1.25 1 0 0
7.45058e-08 13.25 -1.15 1 0 0
7.45058e-08 13.15 -1.05 1 0 0
7.45058e-08 13.05 -0.95 1 0 0
-0.0499999 13 -0.95 0 -1 0
-0.15 14.25 -2.1 0 0 -1
-0.15 13 -0.85 0 -1 0
-0.25 14.35 -2.1 0 0 -1
-0.25 13 -0.75 0 -1 0
-0.35 14.45 -2.1 0 0 -1
-0.35 13 -0.65 0 -1 0
-0.45 14.55 -2.1 0 0 -1
-0.45 13 -0.55 0 -1 0
-0.55 14.65 -2.1 0 0 -1
-0.55 13 -0.45 0 -1 0
-0.65 14.8 -2.05 0 1 0
-0.65 14.75 -2.1 0 0 -1
-0.65 13 -0.35 0 -1 0
-0.75 14.8 -1.95 0 1 0
-0.75 13 -0.25 0 -1 0
-0.75 13.05 -0.2 0 0 1
-0.85 14.8 -1.85 0 1 0
-0.85 13.15 -0.2 0 0 1
-0.95 14.8 -1.75 0 1 0
-0.95 13.25 -0.2 0 0 1
-1.05 14.8 -1.65 0 1 0
-1.05 13.35 -0.2 0 0 1
-1.15 14.8 -1.55 0 1 0
-1.15 13.45 -0.2 0 0 1
-1.25 14.8 -1.45 0 1 0
-1.35 14.8 -1.35 0 1 0
-1.45 14.8 -1.25 0 1 0
-1.45 13.6 -0.15 0 -1 0
-1.45 13.65 -0.1 0 0 1
-1.55 14.8 -1.15 0 1 0
-1.55 13.75 -0.1 0 0 1
-1.65 14.8 -1.05 0 1 0
-1.75 14.8 -0.95 0 1 0
-1.8 13.85 -0.05 -1 0 0
-1.75 13.8 -0.05 0 -1 0
-1.75 13.85 4.47035e-08 0 0 1
-1.85 14.8 -0.85 0 1 0
-1.85 13.9 -0.05 0 -1 0
-1.85 13.95 4.47035e-08 0 0 1
-1.95 14.8 -0.75 0 1 0
-2.05 14.8 -0.65 0 1 0
-2.15 14.8 -0.55 0 1 0
-2.15 14.1 0.05 0 -1 0
-2.15 14.15 0.1 0 0 1
-2.25 14.8 -0.45 0 1 0
-2.25 14.25 0.1 0 0 1
-2.35 14.8 -0.35 0 1 0
-2.45 14.8 -0.25 0 1 0
-2.5 14.35 0.15 -1 0 0
-2.45 14.3 0.15 0 -1 0
-2.45 14.35 0.2 0 0 1
-2.55 14.8 -0.15 0 1 0
-2.55 14.4 0.15 0 -1 0
-2.55 14.45 0.2 0 0 1
-2.65 14.8 -0.05 0 1 0
-2.75 14.8 0.05 0 1 0
-2.85 14.8 0.15 0 1 0
-2.85 14.6 0.25 0 -1 0
-2.85 14.65 0.3 0 0 1
-2.95 14.8 0.25 0 1 0
-2.95 14.75 0.3 0 0 1
7.45058e-08 14.25 -2.05 1 0 0
-0.0499999 14.25 -2.1 0 0 -1
7.45058e-08 14.15 -1.95 1 0 0
7.45058e-08 14.05 -1.85 1 0 0
7.45058e-08 13.95 -1.75 1 0 0
7.45058e-08 13.85 -1.65 1 0 0
7.45058e-08 13.75 -1.55 1 0 0
7.45058e-08 13.65 -1.45 1 0 0
7.45058e-08 13.55 -1.35 1 0 0
7.45058e-08 13.45 -1.25 1 0 0
7.45058e-08 13.35 -1.15 1 0 0
7.45058e-08 13.25 -1.05 1 0 0
7.45058e-08 13.15 -0.95 1 0 0
7.45058e-08 13.05 -0.85 1 0 0
-0.0499999 13 -0.85 0 -1 0
-0.15 14.35 -2.1 0 0 -1
-0.15 13 -0.75 0 -1 0
-0.25 14.45 -2.1 0 0 -1
-0.25 13 -0.65 0 -1 0
-0.35 14.55 -2.1 0 0 -1
-0.35 13 -0.55 0 -1 0
-0.45 14.65 -2.1 0 0 -1
-0.45 13 -0.45 0 -1 0
-0.55 14.8 -2.05 0 1 0
-0.55 14.75 -2.1 0 0 -1
-0.55 13 -0.35 0 -1 0
-0.65 14.8 -1.95 0 1 0
-0.65 13 -0.25 0 -1 0
-0.65 13.05 -0.2 0 0 1
-0.75 14.8 -1.85 0 1 0
-0.75 13.15 -0.2 0 0 1
-0.85 14.8 -1.75 0 1 0
-0.85 13.25 -0.2 0 0 1
-0.95 14.8 -1.65 0 1 0
-0.95 13.35 -0.2 0 0 1
-1.05 14.8 -1.55 0 1 0
-1.15 14.8 -1.45 0 1 0
-1.25 14.8 -1.35 0 1 0
-1.3 13.55 -0.15 -1 0 0
-1.25 13.5 -0.15 0 -1 0
-1.25 13.55 -0.1 0 0 1
-1.35 14.8 -1.25 0 1 0
-1.35 13.6 -0.15 0 -1 0
-1.35 13.65 -0.1 0 0 1
-1.45 14.8 -1.15 0 1 0
-1.55 14.8 -1.05 0 1 0
-1.65 14.8 -0.95 0 1 0
-1.65 13.8 -0.05 0 -1 0
-1.65 13.85 4.47035e-08 0 0 1
-1.75 14.8 -0.85 0 1 0
-1.85 14.8 -0.75 0 1 0
-1.95 14.8 -0.65 0 1 0
-2 14.05 0.05 -1 0 0
-1.95 14 0.05 0 -1 0
-1.95 14.05 0.1 0 0 1
-2.05 14.8 -0.55 0 1 0
-2.05 14.1 0.05 0 -1 0
-2.05 14.15 0.1 0 0 1
-2.15 14.8 -0.45 0 1 0
-2.25 14.8 -0.35 0 1 0
-2.35 14.8 -0.25 0 1 0
-2.35 14.3 0.15 0 -1 0
-2.35 14.35 0.2 0 0 1
-2.45 14.8 -0.15 0 1 0
-2.55 14.8 -0.05 0 1 0
-2.65 14.8 0.05 0 1 0
-2.7 14.55 0.25 -1 0 0
-2.65 14.5 0.25 0 -1 0
-2.65 14.55 0.3 0 0 1
-2.75 14.8 0.15 0 1 0
-2.75 14.6 0.25 0 -1 0
-2.75 14.65 0.3 0 0 1
-2.85 14.8 0.25 0 1 0
7.45058e-08 14.35 -2.05 1 0 0
-0.0499999 14.35 -2.1 0 0 -1
7.45058e-08 14.25 -1.95 1 0 0
7.45058e-08 14.15 -1.85 1 0 0
7.45058e-08 14.05 -1.75 1 0 0
7.45058e-08 13.95 -1.65 1 0 0
7.45058e-08 13.85 -1.55 1 0 0
7.45058e-08 13.75 -1.45 1 0 0
7.45058e-08 13.65 -1.35 1 0 0
7.45058e-08 13.55 -1.25 1 0 0
7.45058e-08 13.45 -1.15 1 0 0
7.45058e-08 13.35 -1.05 1 0 0
7.45058e-08 13.25 -0.95 1 0 0
7.45058e-08 13.15 -0.85 1 0 0
7.45058e-08 13.05 -0.75 1 0 0
-0.0499999 13 -0.75 0 -1 0
-0.15 14.45 -2.1 0 0 -1
-0.15 13 -0.65 0 -1 0
-0.25 14.55 -2.1 0 0 -1
-0.25 13 -0.55 0 -1 0
-0.35 14.65 -2.1 0 0 -1
-0.35 13 -0.45 0 -1 0
-0.45 14.8 -2.05 0 1 0
-0.45 14.75 -2.1 0 0 -1
-0.45 13 -0.35 0 -1 0
-0.55 14.8 -1.95 0 1 0
-0.55 13 -0.25 0 -1 0
-0.55 13.05 -0.2 0 0 1
-0.65 14.8 -1.85 0 1 0
-0.65 13.15 -0.2 0 0 1
-0.75 14.8 -1.75 0 1 0
-0.75 13.25 -0.2 0 0 1
-0.85 14.8 -1.65 0 1 0
-0.85 13.35 -0.2 0 0 1
-0.95 14.8 -1.55 0 1 0
-1.05 14.8 -1.45 0 1 0
-1.1 13.45 -0.15 -1 0 0
-1.05 13.4 -0.15 0 -1 0
-1.05 13.45 -0.1 0 0 1
-1.15 14.8 -1.35 0 1 0
-1.15 13.5 -0.15 0 -1 0
-1.15 13.55 -0.1 0 0 1
-1.25 14.8 -1.25 0 1 0
-1.35 14.8 -1.15 0 1 0
-1.45 14.8 -1.05 0 1 0
-1.5 13.75 -0.05 -1 0 0
-1.45 13.7 -0.05 0 -1 0
-1.45 13.75 4.47035e-08 0 0 1
-1.55 14.8 -0.95 0 1 0
-1.55 13.8 -0.05 0 -1 0
-1.55 13.85 4.47035e-08 0 0 1
-1.65 14.8 -0.85 0 1 0
-1.75 14.8 -0.75 0 1 0
-1.8 13.95 0.05 -1 0 0
-1.75 13.9 0.05 0 -1 0
-1.75 13.95 0.1 0 0 1
-1.85 14.8 -0.65 0 1 0
-1.85 14 0.05 0 -1 0
-1.85 14.05 0.1 0 0 1
-1.95 14.8 -0.55 0 1 0
-2.05 14.8 -0.45 0 1 0
-2.15 14.8 -0.35 0 1 0
-2.2 14.25 0.15 -1 0 0
-2.15 14.2 0.15 0 -1 0
-2.15 14.25 0.2 0 0 1
-2.25 14.8 -0.25 0 1 0
-2.25 14.3 0.15 0 -1 0
-2.25 14.35 0.2 0 0 1
-2.35 14.8 -0.15 0 1 0
-2.45 14.8 -0.05 0 1 0
-2.5 14.45 0.25 -1 0 0
-2.45 14.4 0.25 0 -1 0
-2.45 14.45 0.3 0 0 1
-2.55 14.8 0.05 0 1 0
-2.55 14.5 0.25 0 -1 0
-2.55 14.55 0.3 0 0 1
-2.65 14.8 0.15 0 1 0
-2.75 14.8 0.25 0 1 0
-2.9 14.75 0.35 -1 0 0
-2.85 14.7 0.35 0 -1 0
-2.85 14.8 0.35 0 1 0
-2.85 14.75 0.4 0 0 1
7.45058e-08 14.45 -2.05 1 0 0
-0.0499999 14.45 -2.1 0 0 -1
7.45058e-08 14.35 -1.95 1 0 0
7.45058e-08 14.25 -1.85 1 0 0
7.45058e-08 14.15 -1.75 1 0 0
7.45058e-08 14.05 -1.65 1 0 0
7.45058e-08 13.95 -1.55 1 0 0
7.45058e-08 13.85 -1.45 1 0 0
7.45058e-08 13.75 -1.35 1 0 0
7.45058e-08 13.65 -1.25 1 0 0
7.45058e-08 13.55 -1.15 1 0 0
7.45058e-08 13.45 -1.05 1 0 0
7.45058e-08 13.35 -0.95 1 0 0
7.45058e-08 13.25 -0.85 1 0 0
7.45058e-08 13.15 -0.75 1 0 0
7.45058e-08 13.05 -0.65 1 0 0
-0.0499999 13 -0.65 0 -1 0
-0.15 14.55 -2.1 0 0 -1
-0.15 13 -0.55 0 -1 0
-0.25 14.65 -2.1 0 0 -1
-0.25 13 -0.45 0 -1 0
-0.35 14.8 -2.05 0 1 0
-0.35 14.75 -2.1 0 0 -1
-0.35 13 -0.35 0 -1 0
-0.45 14.8 -1.95 0 1 0
-0.45 13 -0.25 0 -1 0
-0.45 13.05 -0.2 0 0 1
-0.55 14.8 -1.85 0 1 0
-0.55 13.15 -0.2 0 0 1
-0.65 14.8 -1.75 0 1 0
-0.65 13.25 -0.2 0 0 1
-0.75 14.8 -1.65 0 1 0
-0.85 14.8 -1.55 0 1 0
-0.95 14.8 -1.45 0 1 0
-0.95 13.4 -0.15 0 -1 0
-0.95 13.45 -0.1 0 0 1
-1.05 14.8 -1.35 0 1 0
-1.05 13.55 -0.1 0 0 1
-1.15 14.8 -1.25 0 1 0
-1.25 14.8 -1.15 0 1 0
-1.3 13.65 -0.05 -1 0 0
-1.25 13.6 -0.05 0 -1 0
-1.25 13.65 4.47035e-08 0 0 1
-1.35 14.8 -1.05 0 1 0
-1.35 13.7 -0.05 0 -1 0
-1.35 13.75 4.47035e-08 0 0 1
-1.45 14.8 -0.95 0 1 0
-1.55 14.8 -0.85 0 1 0
-1.65 14.8 -0.75 0 1 0
-1.65 13.9 0.05 0 -1 0
-1.65 13.95 0.1 0 0 1
-1.75 14.8 -0.65 0 1 0
-1.75 14.05 0.1 0 0 1
-1.85 14.8 -0.55 0 1 0
-1.95 14.8 -0.45 0 1 0
-2 14.15 0.15 -1 0 0
-1.95 14.1 0.15 0 -1 0
-1.95 14.15 0.2 0 0 1
-2.05 14.8 -0.35 0 1 0
-2.05 14.2 0.15 0 -1 0
-2.05 14.25 0.2 0 0 1
-2.15 14.8 -0.25 0 1 0
-2.25 14.8 -0.15 0 1 0
-2.35 14.8 -0.05 0 1 0
-2.35 14.4 0.25 0 -1 0
-2.35 14.45 0.3 0 0 1
-2.45 14.8 0.05 0 1 0
-2.45 14.55 0.3 0 0 1
-2.55 14.8 0.15 0 1 0
-2.65 14.8 0.25 0 1 0
-2.7 14.65 0.35 -1 0 0
-2.65 14.6 0.35 0 -1 0
-2.65 14.65 0.4 0 0 1
-2.75 14.7 0.35 0 -1 0
-2.75 14.8 0.35 0 1 0
-2.75 14.75 0.4 0 0 1
7.45058e-08 14.55 -2.05 1 0 0
-0.0499999 14.55 -2.1 0 0 -1
7.45058e-08 14.45 -1.95 1 0 0
7.45058e-08 14.35 -1.85 1 0 0
7.45058e-08 14.25 -1.75 1 0 0
7.45058e-08 14.15 -1.65 1 0 0
7.45058e-08 14.05 -1.55 1 0 0
7.45058e-08 13.95 -1.45 1 0 0
7.45058e-08 13.85 -1.35 1 0 0
7.45058e-08 13.75 -1.25 1 0 0
7.45058e-08 13.65 -1.15 1 0 0
7.45058e-08 13.55 -1.05 1 0 0
7.45058e-08 13.45 -0.95 1 0 0
7.45058e-08 13.35 -0.85 1 0 0
7.45058e-08 13.25 -0.75 1 0 0
7.45058e-08 13.15 -0.65 1 0 0
7.45058e-08 13.05 -0.55 1 0 0
-0.0499999 13 -0.55 0 -1 0
-0.15 14.65 -2.1 0 0 -1
-0.15 13 -0.45 0 -1 0
-0.25 14.8 -2.05 0 1 0
-0.25 14.75 -2.1 0 0 -1
-0.25 13 -0.35 0 -1 0
-0.35 14.8 -1.95 0 1 0
-0.35 13 -0.25 0 -1 0
-0.35 13.05 -0.2 0 0 1
-0.45 14.8 -1.85 0 1 0
-0.45 13.15 -0.2 0 0 1
-0.55 14.8 -1.75 0 1 0
-0.55 13.25 -0.2 0 0 1
-0.65 14.8 -1.65 0 1 0
-0.75 14.8 -1.55 0 1 0
-0.8 13.35 -0.15 -1 0 0
-0.75 13.3 -0.15 0 -1 0
-0.75 13.35 -0.1 0 0 1
-0.85 14.8 -1.45 0 1 0
-0.85 13.4 -0.15 0 -1 0
-0.85 13.45 -0.1 0 0 1
-0.95 14.8 -1.35 0 1 0
-1.05 14.8 -1.25 0 1 0
-1.15 14.8 -1.15 0 1 0
-1.15 13.6 -0.05 0 -1 0
-1.15 13.65 4.47035e-08 0 0 1
-1.25 14.8 -1.05 0 1 0
-1.25 13.75 4.47035e-08 0 0 1
-1.35 14.8 -0.95 0 1 0
-1.45 14.8 -0.85 0 1 0
-1.5 13.85 0.05 -1 0 0
-1.45 13.8 0.05 0 -1 0
-1.45 13.85 0.1 0 0 1
-1.55 14.8 -0.75 0 1 0
-1.55 13.9 0.05 0 -1 0
-1.55 13.95 0.1 0 0 1
-1.65 14.8 -0.65 0 1 0
-1.75 14.8 -0.55 0 1 0
-1.85 14.8 -0.45 0 1 0
-1.85 14.1 0.15 0 -1 0
-1.85 14.15 0.2 0 0 1
-1.95 14.8 -0.35 0 1 0
-1.95 14.25 0.2 0 0 1
-2.05 14.8 -0.25 0 1 0
-2.15 14.8 -0.15 0 1 0
-2.2 14.35 0.25 -1 0 0
-2.15 14.3 0.25 0 -1 0
-2.15 14.35 0.3 0 0 1
-2.25 14.8 -0.05 0 1 0
-2.25 14.4 0.25 0 -1 0
-2.25 14.45 0.3 0 0 1
-2.35 14.8 0.05 0 1 0
-2.45 14.8 0.15 0 1 0
-2.55 14.8 0.25 0 1 0
-2.55 14.6 0.35 0 -1 0
-2.55 14.65 0.4 0 0 1
-2.65 14.8 0.35 0 1 0
-2.65 14.75 0.4 0 0 1
7.45058e-08 14.65 -2.05 1 0 0
-0.0499999 14.65 -2.1 0 0 -1
7.45058e-08 14.55 -1.95 1 0 0
7.45058e-08 14.45 -1.85 1 0 0
7.45058e-08 14.35 -1.75 1 0 0
7.45058e-08 14.25 -1.65 1 0 0
7.45058e-08 14.15 -1.55 1 0 0
7.45058e-08 14.05 -1.45 1 0 0
7.45058e-08 13.95 -1.35 1 0 0
7.45058e-08 13.85 -1.25 1 0 0
7.45058e-08 13.75 -1.15 1 0 0
7.45058e-08 13.65 -1.05 1 0 0
7.45058e-08 13.55 -0.95 1 0 0
7.45058e-08 13.45 -0.85 1 0 0
7.45058e-08 13.35 -0.75 1 0 0
7.45058e-08 13.25 -0.65 1 0 0
7.45058e-08 13.15 -0.55 1 0 0
7.45058e-08 13.05 -0.45 1 0 0
-0.0499999 13 -0.45 0 -1 0
-0.15 14.8 -2.05 0 1 0
-0.15 14.75 -2.1 0 0 -1
-0.15 13 -0.35 0 -1 0
-0.25 14.8 -1.95 0 1 0
-0.25 13 -0.25 0 -1 0
-0.25 13.05 -0.2 0 0 1
-0.35 14.8 -1.85 0 1 0
-0.35 13.15 -0.2 0 0 1
-0.45 14.8 -1.75 0 1 0
-0.55 14.8 -1.65 0 1 0
-0.65 14.8 -1.55 0 1 0
-0.65 13.3 -0.15 0 -1 0
-0.65 13.35 -0.1 0 0 1
-0.75 14.8 -1.45 0 1 0
-0.75 13.45 -0.1 0 0 1
-0.85 14.8 -1.35 0 1 0
-0.95 14.8 -1.25 0 1 0
-1 13.55 -0.05 -1 0 0
-0.95 13.5 -0.05 0 -1 0
-0.95 13.55 4.47035e-08 0 0 1
-1.05 14.8 -1.15 0 1 0
-1.05 13.6 -0.05 0 -1 0
-1.05 13.65 4.47035e-08 0 0 1
-1.15 14.8 -1.05 0 1 0
-1.25 14.8 -0.95 0 1 0
-1.35 14.8 -0.85 0 1 0
-1.35 13.8 0.05 0 -1 0
-1.35 13.85 0.1 0 0 1
-1.45 14.8 -0.75 0 1 0
-1.45 13.95 0.1 0 0 1
-1.55 14.8 -0.65 0 1 0
-1.65 14.8 -0.55 0 1 0
-1.7 14.05 0.15 -1 0 0
-1.65 14 0.15 0 -1 0
-1.65 14.05 0.2 0 0 1
-1.75 14.8 -0.45 0 1 0
-1.75 14.1 0.15 0 -1 0
-1.75 14.15 0.2 0 0 1
-1.85 14.8 -0.35 0 1 0
-1.95 14.8 -0.25 0 1 0
-2.05 14.8 -0.15 0 1 0
-2.05 14.3 0.25 0 -1 0
-2.05 14.35 0.3 0 0 1
-2.15 14.8 -0.05 0 1 0
-2.15 14.45 0.3 0 0 1
-2.25 14.8 0.05 0 1 0
-2.35 14.8 0.15 0 1 0
-2.4 14.55 0.35 -1 0 0
-2.35 14.5 0.35 0 -1 0
-2.35 14.55 0.4 0 0 1
-2.45 14.8 0.25 0 1 0
-2.45 14.6 0.35 0 -1 0
-2.45 14.65 0.4 0 0 1
-2.55 14.8 0.35 0 1 0
7.45058e-08 14.75 -2.05 1 0 0
-0.0499999 14.8 -2.05 0 1 0
-0.0499999 14.75 -2.1 0 0 -1
7.45058e-08 14.65 -1.95 1 0 0
7.45058e-08 14.55 -1.85 1 0 0
7.45058e-08 14.45 -1.75 1 0 0
7.45058e-08 14.35 -1.65 1 0 0
7.45058e-08 14.25 -1.55 1 0 0
7.45058e-08 14.15 -1.45 1 0 0
7.45058e-08 14.05 -1.35 1 0 0
7.45058e-08 13.95 -1.25 1 0 0
7.45058e-08 13.85 -1.15 1 0 0
7.45058e-08 13.75 -1.05 1 0 0
7.45058e-08 13.65 -0.95 1 0 0
7.45058e-08 13.55 -0.85 1 0 0
7.45058e-08 13.45 -0.75 1 0 0
7.45058e-08 13.35 -0.65 1 0 0
7.45058e-08 13.25 -0.55 1 0 0
7.45058e-08 13.15 -0.45 1 0 0
7.45058e-08 13.05 -0.35 1 0 0
-0.0499999 13 -0.35 0 -1 0
-0.15 14.8 -1.95 0 1 0
-0.15 13 -0.25 0 -1 0
-0.15 13.05 -0.2 0 0 1
-0.25 14.8 -1.85 0 1 0
-0.25 13.15 -0.2 0 0 1
-0.35 14.8 -1.75 0 1 0
-0.45 14.8 -1.65 0 1 0
-0.5 13.25 -0.15 -1 0 0
-0.45 13.2 -0.15 0 -1 0
-0.45 13.25 -0.1 0 0 1
-0.55 14.8 -1.55 0 1 0
-0.55 13.3 -0.15 0 -1 0
-0.55 13.35 -0.1 0 0 1
-0.65 14.8 -1.45 0 1 0
-0.75 14.8 -1.35 0 1 0
-0.85 14.8 -1.25 0 1 0
-0.85 13.5 -0.05 0 -1 0
-0.85 13.55 4.47035e-08 0 0 1
-0.95 14.8 -1.15 0 1 0
-0.95 13.65 4.47035e-08 0 0 1
-1.05 14.8 -1.05 0 1 0
-1.15 14.8 -0.95 0 1 0
-1.2 13.75 0.05 -1 0 0
-1.15 13.7 0.05 0 -1 0
-1.15 13.75 0.1 0 0 1
-1.25 14.8 -0.85 0 1 0
-1.25 13.8 0.05 0 -1 0
-1.25 13.85 0.1 0 0 1
-1.35 14.8 -0.75 0 1 0
-1.45 14.8 -0.65 0 1 0
-1.55 14.8 -0.55 0 1 0
-1.55 14 0.15 0 -1 0
-1.55 14.05 0.2 0 0 1
-1.65 14.8 -0.45 0 1 0
-1.65 14.15 0.2 0 0 1
-1.75 14.8 -0.35 0 1 0
-1.85 14.8 -0.25 0 1 0
-1.9 14.25 0.25 -1 0 0
-1.85 14.2 0.25 0 -1 0
-1.85 14.25 0.3 0 0 1
-1.95 14.8 -0.15 0 1 0
-1.95 14.3 0.25 0 -1 0
-1.95 14.35 0.3 0 0 1
-2.05 14.8 -0.05 0 1 0
-2.15 14.8 0.05 0 1 0
-2.25 14.8 0.15 0 1 0
-2.25 14.5 0.35 0 -1 0
-2.25 14.55 0.4 0 0 1
-2.35 14.8 0.25 0 1 0
-2.35 14.65 0.4 0 0 1
-2.45 14.8 0.35 0 1 0
-2.6 14.75 0.45 -1 0 0
-2.55 14.7 0.45 0 -1 0
-2.55 14.8 0.45 0 1 0
-2.55 14.75 0.5 0 0 1
7.45058e-08 14.75 -1.95 1 0 0
-0.0499999 14.8 -1.95 0 1 0
7.45058e-08 14.65 -1.85 1 0 0
7.45058e-08 14.55 -1.75 1 0 0
7.45058e-08 14.45 -1.65 1 0 0
7.45058e-08 14.35 -1.55 1 0 0
7.45058e-08 14.25 -1.45 1 0 0
7.45058e-08 14.15 -1.35 1 0 0
7.45058e-08 14.05 -1.25 1 0 0
7.45058e-08 13.95 -1.15 1 0 0
7.45058e-08 13.85 -1.05 1 0 0
7.45058e-08 13.75 -0.95 1 0 0
7.45058e-08 13.65 -0.85 1 0 0
7.45058e-08 13.55 -0.75 1 0 0
7.45058e-08 13.45 -0.65 1 0 0
7.45058e-08 13.35 -0.55 1 0 0
7.45058e-08 13.25 -0.45 1 0 0
7.45058e-08 13.15 -0.35 1 0 0
7.45058e-08 13.05 -0.25 1 0 0
-0.0499999 13 -0.25 0 -1 0
-0.0499999 13.05 -0.2 0 0 1
-0.15 14.8 -1.85 0 1 0
-0.25 14.8 -1.75 0 1 0
-0.35 14.8 -1.65 0 1 0
-0.35 13.2 -0.15 0 -1 0
-0.35 13.25 -0.1 0 0 1
-0.45 14.8 -1.55 0 1 0
-0.55 14.8 -1.45 0 1 0
-0.65 14.8 -1.35 0 1 0
-0.7 13.45 -0.05 -1 0 0
-0.65 13.4 -0.05 0 -1 0
-0.65 13.45 4.47035e-08 0 0 1
-0.75 14.8 -1.25 0 1 0
-0.75 13.5 -0.05 0 -1 0
-0.75 13.55 4.47035e-08 0 0 1
-0.85 14.8 -1.15 0 1 0
-0.95 14.8 -1.05 0 1 0
-1.05 14.8 -0.95 0 1 0
-1.05 13.7 0.05 0 -1 0
-1.05 13.75 0.1 0 0 1
-1.15 14.8 -0.85 0 1 0
-1.25 14.8 -0.75 0 1 0
-1.35 14.8 -0.65 0 1 0
-1.4 13.95 0.15 -1 0 0
-1.35 13.9 0.15 0 -1 0
-1.35 13.95 0.2 0 0 1
-1.45 14.8 -0.55 0 1 0
-1.45 14 0.15 0 -1 0
-1.45 14.05 0.2 0 0 1
-1.55 14.8 -0.45 0 1 0
-1.65 14.8 -0.35 0 1 0
-1.75 14.8 -0.25 0 1 0
-1.75 14.2 0.25 0 -1 0
-1.75 14.25 0.3 0 0 1
-1.85 14.8 -0.15 0 1 0
-1.95 14.8 -0.05 0 1 0
-2.05 14.8 0.05 0 1 0
-2.1 14.45 0.35 -1 0 0
-2.05 14.4 0.35 0 -1 0
-2.05 14.45 0.4 0 0 1
-2.15 14.8 0.15 0 1 0
-2.15 14.5 0.35 0 -1 0
-2.15 14.55 0.4 0 0 1
-2.25 14.8 0.25 0 1 0
-2.35 14.8 0.35 0 1 0
-2.45 14.7 0.45 0 -1 0
-2.45 14.8 0.45 0 1 0
-2.45 14.75 0.5 0 0 1
7.45058e-08 14.75 -1.85 1 0 0
-0.0499999 14.8 -1.85 0 1 0
7.45058e-08 14.65 -1.75 1 0 0
7.45058e-08 14.55 -1.65 1 0 0
7.45058e-08 14.45 -1.55 1 0 0
7.45058e-08 14.35 -1.45 1 0 0
7.45058e-08 14.25 -1.35 1 0 0
7.45058e-08 14.15 -1.25 1 0 0
7.45058e-08 14.05 -1.15 1 0 0
7.45058e-08 13.95 -1.05 1 0 0
7.45058e-08 13.85 -0.95 1 0 0
7.45058e-08 13.75 -0.85 1 0 0
7.45058e-08 13.65 -0.75 1 0 0
7.45058e-08 13.55 -0.65 1 0 0
7.45058e-08 13.45 -0.55 1 0 0
7.45058e-08 13.35 -0.45 1 0 0
7.45058e-08 13.25 -0.35 1 0 0
7.45058e-08 13.15 -0.25 1 0 0
-0.15 14.8 -1.75 0 1 0
-0.2 13.15 -0.15 -1 0 0
-0.15 13.1 -0.15 0 -1 0
-0.15 13.15 -0.1 0 0 1
-0.25 14.8 -1.65 0 1 0
-0.25 13.2 -0.15 0 -1 0
-0.25 13.25 -0.1 0 0 1
-0.35 14.8 -1.55 0 1 0
-0.45 14.8 -1.45 0 1 0
-0.5 13.35 -0.05 -1 0 0
-0.45 13.3 -0.05 0 -1 0
-0.45 13.35 4.47035e-08 0 0 1
-0.55 14.8 -1.35 0 1 0
-0.55 13.4 -0.05 0 -1 0
-0.55 13.45 4.47035e-08 0 0 1
-0.65 14.8 -1.25 0 1 0
-0.75 14.8 -1.15 0 1 0
-0.85 14.8 -1.05 0 1 0
-0.9 13.65 0.05 -1 0 0
-0.85 13.6 0.05 0 -1 0
-0.85 13.65 0.1 0 0 1
-0.95 14.8 -0.95 0 1 0
-0.95 13.7 0.05 0 -1 0
-0.95 13.75 0.1 0 0 1
-1.05 14.8 -0.85 0 1 0
-1.15 14.8 -0.75 0 1 0
-1.2 13.85 0.15 -1 0 0
-1.15 13.8 0.15 0 -1 0
-1.15 13.85 0.2 0 0 1
-1.25 14.8 -0.65 0 1 0
-1.25 13.9 0.15 0 -1 0
-1.25 13.95 0.2 0 0 1
-1.35 14.8 -0.55 0 1 0
-1.45 14.8 -0.45 0 1 0
-1.55 14.8 -0.35 0 1 0
-1.6 14.15 0.25 -1 0 0
-1.55 14.1 0.25 0 -1 0
-1.55 14.15 0.3 0 0 1
-1.65 14.8 -0.25 0 1 0
-1.65 14.2 0.25 0 -1 0
-1.65 14.25 0.3 0 0 1
-1.75 14.8 -0.15 0 1 0
-1.85 14.8 -0.05 0 1 0
-1.9 14.35 0.35 -1 0 0
-1.85 14.3 0.35 0 -1 0
-1.85 14.35 0.4 0 0 1
-1.95 14.8 0.05 0 1 0
-1.95 14.4 0.35 0 -1 0
-1.95 14.45 0.4 0 0 1
-2.05 14.8 0.15 0 1 0
-2.15 14.8 0.25 0 1 0
-2.25 14.8 0.35 0 1 0
-2.3 14.65 0.45 -1 0 0
-2.25 14.6 0.45 0 -1 0
-2.25 14.65 0.5 0 0 1
-2.35 14.7 0.45 0 -1 0
-2.35 14.8 0.45 0 1 0
-2.35 14.75 0.5 0 0 1
7.45058e-08 14.75 -1.75 1 0 0
-0.0499999 14.8 -1.75 0 1 0
7.45058e-08 14.65 -1.65 1 0 0
7.45058e-08 14.55 -1.55 1 0 0
7.45058e-08 14.45 -1.45 1 0 0
7.45058e-08 14.35 -1.35 1 0 0
7.45058e-08 14.25 -1.25 1 0 0
7.45058e-08 14.15 -1.15 1 0 0
7.45058e-08 14.05 -1.05 1 0 0
7.45058e-08 13.95 -0.95 1 0 0
7.45058e-08 13.85 -0.85 1 0 0
7.45058e-08 13.75 -0.75 1 0 0
7.45058e-08 13.65 -0.65 1 0 0
7.45058e-08 13.55 -0.55 1 0 0
7.45058e-08 13.45 -0.45 1 0 0
7.45058e-08 13.35 -0.35 1 0 0
7.45058e-08 13.25 -0.25 1 0 0
7.45058e-08 13.15 -0.15 1 0 0
-0.0499999 13.1 -0.15 0 -1 0
-0.0499999 13.15 -0.1 0 0 1
-0.15 14.8 -1.65 0 1 0
-0.25 14.8 -1.55 0 1 0
-0.35 14.8 -1.45 0 1 0
-0.35 13.3 -0.05 0 -1 0
-0.35 13.35 4.47035e-08 0 0 1
-0.45 14.8 -1.35 0 1 0
-0.45 13.45 4.47035e-08 0 0 1
-0.55 14.8 -1.25 0 1 0
-0.65 14.8 -1.15 0 1 0
-0.7 13.55 0.05 -1 0 0
-0.65 13.5 0.05 0 -1 0
-0.65 13.55 0.1 0 0 1
-0.75 14.8 -1.05 0 1 0
-0.75 13.6 0.05 0 -1 0
-0.75 13.65 0.1 0 0 1
-0.85 14.8 -0.95 0 1 0
-0.95 14.8 -0.85 0 1 0
-1.05 14.8 -0.75 0 1 0
-1.05 13.8 0.15 0 -1 0
-1.05 13.85 0.2 0 0 1
-1.15 14.8 -0.65 0 1 0
-1.15 13.95 0.2 0 0 1
-1.25 14.8 -0.55 0 1 0
-1.35 14.8 -0.45 0 1 0
-1.4 14.05 0.25 -1 0 0
-1.35 14 0.25 0 -1 0
-1.35 14.05 0.3 0 0 1
-1.45 14.8 -0.35 0 1 0
-1.45 14.1 0.25 0 -1 0
-1.45 14.15 0.3 0 0 1
-1.55 14.8 -0.25 0 1 0
-1.65 14.8 -0.15 0 1 0
-1.75 14.8 -0.05 0 1 0
-1.75 14.3 0.35 0 -1 0
-1.75 14.35 0.4 0 0 1
-1.85 14.8 0.05 0 1 0
-1.85 14.45 0.4 0 0 1
-1.95 14.8 0.15 0 1 0
-2.05 14.8 0.25 0 1 0
-2.1 14.55 0.45 -1 0 0
-2.05 14.5 0.45 0 -1 0
-2.05 14.55 0.5 0 0 1
-2.15 14.8 0.35 0 1 0
-2.15 14.6 0.45 0 -1 0
-2.15 14.65 0.5 0 0 1
-2.25 14.8 0.45 0 1 0
7.45058e-08 14.75 -1.65 1 0 0
-0.0499999 14.8 -1.65 0 1 0
7.45058e-08 14.65 -1.55 1 0 0
7.45058e-08 14.55 -1.45 1 0 0
7.45058e-08 14.45 -1.35 1 0 0
7.45058e-08 14.35 -1.25 1 0 0
7.45058e-08 14.25 -1.15 1 0 0
7.45058e-08 14.15 -1.05 1 0 0
7.45058e-08 14.05 -0.95 1 0 0
7.45058e-08 13.95 -0.85 1 0 0
7.45058e-08 13.85 -0.75 1 0 0
7.45058e-08 13.75 -0.65 1 0 0
7.45058e-08 13.65 -0.55 1 0 0
7.45058e-08 13.55 -0.45 1 0 0
7.45058e-08 13.45 -0.35 1 0 0
7.45058e-08 13.35 -0.25 1 0 0
7.45058e-08 13.25 -0.15 1 0 0
-0.15 14.8 -1.55 0 1 0
-0.2 13.25 -0.05 -1 0 0
-0.15 13.2 -0.05 0 -1 0
-0.15 13.25 4.47035e-08 0 0 1
-0.25 14.8 -1.45 0 1 0
-0.25 13.3 -0.05 0 -1 0
-0.25 13.35 4.47035e-08 0 0 1
-0.35 14.8 -1.35 0 1 0
-0.45 14.8 -1.25 0 1 0
-0.55 14.8 -1.15 0 1 0
-0.55 13.5 0.05 0 -1 0
-0.55 13.55 0.1 0 0 1
-0.65 14.8 -1.05 0 1 0
-0.65 13.65 0.1 0 0 1
-0.75 14.8 -0.95 0 1 0
-0.85 14.8 -0.85 0 1 0
-0.9 13.75 0.15 -1 0 0
-0.85 13.7 0.15 0 -1 0
-0.85 13.75 0.2 0 0 1
-0.95 14.8 -0.75 0 1 0
-0.95 13.8 0.15 0 -1 0
-0.95 13.85 0.2 0 0 1
-1.05 14.8 -0.65 0 1 0
-1.15 14.8 -0.55 0 1 0
-1.25 14.8 -0.45 0 1 0
-1.25 14 0.25 0 -1 0
-1.25 14.05 0.3 0 0 1
-1.35 14.8 -0.35 0 1 0
-1.35 14.15 0.3 0 0 1
-1.45 14.8 -0.25 0 1 0
-1.55 14.8 -0.15 0 1 0
-1.6 14.25 0.35 -1 0 0
-1.55 14.2 0.35 0 -1 0
-1.55 14.25 0.4 0 0 1
-1.65 14.8 -0.05 0 1 0
-1.65 14.3 0.35 0 -1 0
-1.65 14.35 0.4 0 0 1
-1.75 14.8 0.05 0 1 0
-1.85 14.8 0.15 0 1 0
-1.95 14.8 0.25 0 1 0
-1.95 14.5 0.45 0 -1 0
-1.95 14.55 0.5 0 0 1
-2.05 14.8 0.35 0 1 0
-2.05 14.65 0.5 0 0 1
-2.15 14.8 0.45 0 1 0
-2.3 14.75 0.55 -1 0 0
-2.25 14.7 0.55 0 -1 0
-2.25 14.8 0.55 0 1 0
-2.25 14.75 0.6 0 0 1
7.45058e-08 14.75 -1.55 1 0 0
-0.0499999 14.8 -1.55 0 1 0
7.45058e-08 14.65 -1.45 1 0 0
7.45058e-08 14.55 -1.35 1 0 0
7.45058e-08 14.45 -1.25 1 0 0
7.45058e-08 14.35 -1.15 1 0 0
7.45058e-08 14.25 -1.05 1 0 0
7.45058e-08 14.15 -0.95 1 0 0
7.45058e-08 14.05 -0.85 1 0 0
7.45058e-08 13.95 -0.75 1 0 0
7.45058e-08 13.85 -0.65 1 0 0
7.45058e-08 13.75 -0.55 1 0 0
7.45058e-08 13.65 -0.45 1 0 0
7.45058e-08 13.55 -0.35 1 0 0
7.45058e-08 13.45 -0.25 1 0 0
7.45058e-08 13.35 -0.15 1 0 0
7.45058e-08 13.25 -0.05 1 0 0
-0.0499999 13.2 -0.05 0 -1 0
-0.0499999 13.25 4.47035e-08 0 0 1
-0.15 14.8 -1.45 0 1 0
-0.15 13.35 4.47035e-08 0 0 1
-0.25 14.8 -1.35 0 1 0
-0.35 14.8 -1.25 0 1 0
-0.4 13.45 0.05 -1 0 0
-0.35 13.4 0.05 0 -1 0
-0.35 13.45 0.1 0 0 1
-0.45 14.8 -1.15 0 1 0
-0.45 13.5 0.05 0 -1 0
-0.45 13.55 0.1 0 0 1
-0.55 14.8 -1.05 0 1 0
-0.65 14.8 -0.95 0 1 0
-0.75 14.8 -0.85 0 1 0
-0.75 13.7 0.15 0 -1 0
-0.75 13.75 0.2 0 0 1
-0.85 14.8 -0.75 0 1 0
-0.85 13.85 0.2 0 0 1
-0.95 14.8 -0.65 0 1 0
-1.05 14.8 -0.55 0 1 0
-1.1 13.95 0.25 -1 0 0
-1.05 13.9 0.25 0 -1 0
-1.05 13.95 0.3 0 0 1
-1.15 14.8 -0.45 0 1 0
-1.15 14 0.25 0 -1 0
-1.15 14.05 0.3 0 0 1
-1.25 14.8 -0.35 0 1 0
-1.35 14.8 -0.25 0 1 0
-1.45 14.8 -0.15 0 1 0
-1.45 14.2 0.35 0 -1 0
-1.45 14.25 0.4 0 0 1
-1.55 14.8 -0.05 0 1 0
-1.55 14.35 0.4 0 0 1
-1.65 14.8 0.05 0 1 0
-1.75 14.8 0.15 0 1 0
-1.8 14.45 0.45 -1 0 0
-1.75 14.4 0.45 0 -1 0
-1.75 14.45 0.5 0 0 1
-1.85 14.8 0.25 0 1 0
-1.85 14.5 0.45 0 -1 0
-1.85 14.55 0.5 0 0 1
-1.95 14.8 0.35 0 1 0
-2.05 14.8 0.45 0 1 0
-2.15 14.7 0.55 0 -1 0
-2.15 14.8 0.55 0 1 0
-2.15 14.75 0.6 0 0 1
7.45058e-08 14.75 -1.45 1 0 0
-0.0499999 14.8 -1.45 0 1 0
7.45058e-08 14.65 -1.35 1 0 0
7.45058e-08 14.55 -1.25 1 0 0
7.45058e-08 14.45 -1.15 1 0 0
7.45058e-08 14.35 -1.05 1 0 0
7.45058e-08 14.25 -0.95 1 0 0
7.45058e-08 14.15 -0.85 1 0 0
7.45058e-08 14.05 -0.75 1 0 0
7.45058e-08 13.95 -0.65 1 0 0
7.45058e-08 13.85 -0.55 1 0 0
7.45058e-08 13.75 -0.45 1 0 0
7.45058e-08 13.65 -0.35 1 0 0
7.45058e-08 13.55 -0.25 1 0 0
7.45058e-08 13.45 -0.15 1 0 0
7.45058e-08 13.35 -0.05 1 0 0
-0.15 14.8 -1.35 0 1 0
-0.25 14.8 -1.25 0 1 0
-0.25 13.4 0.05 0 -1 0
-0.25 13.45 0.1 0 0 1
-0.35 14.8 -1.15 0 1 0
-0.35 13.55 0.1 0 0 1
-0.45 14.8 -1.05 0 1 0
-0.55 14.8 -0.95 0 1 0
-0.6 13.65 0.15 -1 0 0
-0.55 13.6 0.15 0 -1 0
-0.55 13.65 0.2 0 0 1
-0.65 14.8 -0.85 0 1 0
-0.65 13.7 0.15 0 -1 0
-0.65 13.75 0.2 0 0 1
-0.75 14.8 -0.75 0 1 0
-0.85 14.8 -0.65 0 1 0
-0.95 14.8 -0.55 0 1 0
-0.95 13.9 0.25 0 -1 0
-0.95 13.95 0.3 0 0 1
-1.05 14.8 -0.45 0 1 0
-1.05 14.05 0.3 0 0 1
-1.15 14.8 -0.35 0 1 0
-1.25 14.8 -0.25 0 1 0
-1.3 14.15 0.35 -1 0 0
-1.25 14.1 0.35 0 -1 0
-1.25 14.15 0.4 0 0 1
-1.35 14.8 -0.15 0 1 0
-1.35 14.2 0.35 0 -1 0
-1.35 14.25 0.4 0 0 1
-1.45 14.8 -0.05 0 1 0
-1.55 14.8 0.05 0 1 0
-1.65 14.8 0.15 0 1 0
-1.65 14.4 0.45 0 -1 0
-1.65 14.45 0.5 0 0 1
-1.75 14.8 0.25 0 1 0
-1.75 14.55 0.5 0 0 1
-1.85 14.8 0.35 0 1 0
-1.95 14.8 0.45 0 1 0
-2 14.65 0.55 -1 0 0
-1.95 14.6 0.55 0 -1 0
-1.95 14.65 0.6 0 0 1
-2.05 14.7 0.55 0 -1 0
-2.05 14.8 0.55 0 1 0
-2.05 14.75 0.6 0 0 1
7.45058e-08 14.75 -1.35 1 0 0
-0.0499999 14.8 -1.35 0 1 0
7.45058e-08 14.65 -1.25 1 0 0
7.45058e-08 14.55 -1.15 1 0 0
7.45058e-08 14.45 -1.05 1 0 0
7.45058e-08 14.35 -0.95 1 0 0
7.45058e-08 14.25 -0.85 1 0 0
7.45058e-08 14.15 -0.75 1 0 0
7.45058e-08 14.05 -0.65 1 0 0
7.45058e-08 13.95 -0.55 1 0 0
7.45058e-08 13.85 -0.45 1 0 0
7.45058e-08 13.75 -0.35 1 0 0
7.45058e-08 13.65 -0.25 1 0 0
7.45058e-08 13.55 -0.15 1 0 0
7.45058e-08 13.45 -0.05 1 0 0
-0.0999999 13.35 0.05 -1 0 0
7.45058e-08 13.35 0.05 1 0 0
-0.0499999 13.3 0.05 0 -1 0
-0.0499999 13.35 0.1 0 0 1
-0.15 14.8 -1.25 0 1 0
-0.15 13.4 0.05 0 -1 0
-0.15 13.45 0.1 0 0 1
-0.25 14.8 -1.15 0 1 0
-0.35 14.8 -1.05 0 1 0
-0.45 14.8 -0.95 0 1 0
-0.45 13.6 0.15 0 -1 0
-0.45 13.65 0.2 0 0 1
-0.55 14.8 -0.85 0 1 0
-0.55 13.75 0.2 0 0 1
-0.65 14.8 -0.75 0 1 0
-0.75 14.8 -0.65 0 1 0
-0.8 13.85 0.25 -1 0 0
-0.75 13.8 0.25 0 -1 0
-0.75 13.85 0.3 0 0 1
-0.85 14.8 -0.55 0 1 0
-0.85 13.9 0.25 0 -1 0
-0.85 13.95 0.3 0 0 1
-0.95 14.8 -0.45 0 1 0
-1.05 14.8 -0.35 0 1 0
-1.15 14.8 -0.25 0 1 0
-1.15 14.1 0.35 0 -1 0
-1.15 14.15 0.4 0 0 1
-1.25 14.8 -0.15 0 1 0
-1.25 14.25 0.4 0 0 1
-1.35 14.8 -0.05 0 1 0
-1.45 14.8 0.05 0 1 0
-1.5 14.35 0.45 -1 0 0
-1.45 14.3 0.45 0 -1 0
-1.45 14.35 0.5 0 0 1
-1.55 14.8 0.15 0 1 0
-1.55 14.4 0.45 0 -1 0
-1.55 14.45 0.5 0 0 1
-1.65 14.8 0.25 0 1 0
-1.75 14.8 0.35 0 1 0
-1.85 14.8 0.45 0 1 0
-1.85 14.6 0.55 0 -1 0
-1.85 14.65 0.6 0 0 1
-1.95 14.8 0.55 0 1 0
-1.95 14.75 0.6 0 0 1
7.45058e-08 14.75 -1.25 1 0 0
-0.0499999 14.8 -1.25 0 1 0
7.45058e-08 14.65 -1.15 1 0 0
7.45058e-08 14.55 -1.05 1 0 0
7.45058e-08 14.45 -0.95 1 0 0
7.45058e-08 14.35 -0.85 1 0 0
7.45058e-08 14.25 -0.75 1 0 0
7.45058e-08 14.15 -0.65 1 0 0
7.45058e-08 14.05 -0.55 1 0 0
7.45058e-08 13.95 -0.45 1 0 0
7.45058e-08 13.85 -0.35 1 0 0
7.45058e-08 13.75 -0.25 1 0 0
7.45058e-08 13.65 -0.15 1 0 0
7.45058e-08 13.55 -0.05 1 0 0
7.45058e-08 13.45 0.05 1 0 0
-0.15 14.8 -1.15 0 1 0
-0.25 14.8 -1.05 0 1 0
-0.3 13.55 0.15 -1 0 0
-0.25 13.5 0.15 0 -1 0
-0.25 13.55 0.2 0 0 1
-0.35 14.8 -0.95 0 1 0
-0.35 13.6 0.15 0 -1 0
-0.35 13.65 0.2 0 0 1
-0.45 14.8 -0.85 0 1 0
-0.55 14.8 -0.75 0 1 0
-0.65 14.8 -0.65 0 1 0
-0.65 13.8 0.25 0 -1 0
-0.65 13.85 0.3 0 0 1
-0.75 14.8 -0.55 0 1 0
-0.85 14.8 -0.45 0 1 0
-0.95 14.8 -0.35 0 1 0
-1 14.05 0.35 -1 0 0
-0.95 14 0.35 0 -1 0
-0.95 14.05 0.4 0 0 1
-1.05 14.8 -0.25 0 1 0
-1.05 14.1 0.35 0 -1 0
-1.05 14.15 0.4 0 0 1
-1.15 14.8 -0.15 0 1 0
-1.25 14.8 -0.05 0 1 0
-1.35 14.8 0.05 0 1 0
-1.35 14.3 0.45 0 -1 0
-1.35 14.35 0.5 0 0 1
-1.45 14.8 0.15 0 1 0
-1.55 14.8 0.25 0 1 0
-1.65 14.8 0.35 0 1 0
-1.7 14.55 0.55 -1 0 0
-1.65 14.5 0.55 0 -1 0
-1.65 14.55 0.6 0 0 1
-1.75 14.8 0.45 0 1 0
-1.75 14.6 0.55 0 -1 0
-1.75 14.65 0.6 0 0 1
-1.85 14.8 0.55 0 1 0
7.45058e-08 14.75 -1.15 1 0 0
-0.0499999 14.8 -1.15 0 1 0
7.45058e-08 14.65 -1.05 1 0 0
7.45058e-08 14.55 -0.95 1 0 0
7.45058e-08 14.45 -0.85 1 0 0
7.45058e-08 14.35 -0.75 1 0 0
7.45058e-08 14.25 -0.65 1 0 0
7.45058e-08 14.15 -0.55 1 0 0
7.45058e-08 14.05 -0.45 1 0 0
7.45058e-08 13.95 -0.35 1 0 0
7.45058e-08 13.85 -0.25 1 0 0
7.45058e-08 13.75 -0.15 1 0 0
7.45058e-08 13.65 -0.05 1 0 0
7.45058e-08 13.55 0.05 1 0 0
-0.0999999 13.45 0.15 -1 0 0
7.45058e-08 13.45 0.15 1 0 0
-0.0499999 13.4 0.15 0 -1 0
-0.0499999 13.45 0.2 0 0 1
-0.15 14.8 -1.05 0 1 0
-0.15 13.5 0.15 0 -1 0
-0.15 13.55 0.2 0 0 1
-0.25 14.8 -0.95 0 1 0
-0.35 14.8 -0.85 0 1 0
-0.45 14.8 -0.75 0 1 0
-0.5 13.75 0.25 -1 0 0
-0.45 13.7 0.25 0 -1 0
-0.45 13.75 0.3 0 0 1
-0.55 14.8 -0.65 0 1 0
-0.55 13.8 0.25 0 -1 0
-0.55 13.85 0.3 0 0 1
-0.65 14.8 -0.55 0 1 0
-0.75 14.8 -0.45 0 1 0
-0.8 13.95 0.35 -1 0 0
-0.75 13.9 0.35 0 -1 0
-0.75 13.95 0.4 0 0 1
-0.85 14.8 -0.35 0 1 0
-0.85 14 0.35 0 -1 0
-0.85 14.05 0.4 0 0 1
-0.95 14.8 -0.25 0 1 0
-1.05 14.8 -0.15 0 1 0
-1.15 14.8 -0.05 0 1 0
-1.2 14.25 0.45 -1 0 0
-1.15 14.2 0.45 0 -1 0
-1.15 14.25 0.5 0 0 1
-1.25 14.8 0.05 0 1 0
-1.25 14.3 0.45 0 -1 0
-1.25 14.35 0.5 0 0 1
-1.35 14.8 0.15 0 1 0
-1.45 14.8 0.25 0 1 0
-1.5 14.45 0.55 -1 0 0
-1.45 14.4 0.55 0 -1 0
-1.45 14.45 0.6 0 0 1
-1.55 14.8 0.35 0 1 0
-1.55 14.5 0.55 0 -1 0
-1.55 14.55 0.6 0 0 1
-1.65 14.8 0.45 0 1 0
-1.75 14.8 0.55 0 1 0
-1.9 14.75 0.65 -1 0 0
-1.85 14.7 0.65 0 -1 0
-1.85 14.8 0.65 0 1 0
-1.85 14.75 0.7 0 0 1
7.45058e-08 14.75 -1.05 1 0 0
-0.0499999 14.8 -1.05 0 1 0
7.45058e-08 14.65 -0.95 1 0 0
7.45058e-08 14.55 -0.85 1 0 0
7.45058e-08 14.45 -0.75 1 0 0
7.45058e-08 14.35 -0.65 1 0 0
7.45058e-08 14.25 -0.55 1 0 0
7.45058e-08 14.15 -0.45 1 0 0
7.45058e-08 14.05 -0.35 1 0 0
7.45058e-08 13.95 -0.25 1 0 0
7.45058e-08 13.85 -0.15 1 0 0
7.45058e-08 13.75 -0.05 1 0 0
7.45058e-08 13.65 0.05 1 0 0
7.45058e-08 13.55 0.15 1 0 0
-0.0499999 13.55 0.2 0 0 1
-0.15 14.8 -0.95 0 1 0
-0.25 14.8 -0.85 0 1 0
-0.3 13.65 0.25 -1 0 0
-0.25 13.6 0.25 0 -1 0
-0.25 13.65 0.3 0 0 1
-0.35 14.8 -0.75 0 1 0
-0.35 13.7 0.25 0 -1 0
-0.35 13.75 0.3 0 0 1
-0.45 14.8 -0.65 0 1 0
-0.55 14.8 -0.55 0 1 0
-0.65 14.8 -0.45 0 1 0
-0.65 13.9 0.35 0 -1 0
-0.65 13.95 0.4 0 0 1
-0.75 14.8 -0.35 0 1 0
-0.75 14.05 0.4 0 0 1
-0.85 14.8 -0.25 0 1 0
-0.95 14.8 -0.15 0 1 0
-1 14.15 0.45 -1 0 0
-0.95 14.1 0.45 0 -1 0
-0.95 14.15 0.5 0 0 1
-1.05 14.8 -0.05 0 1 0
-1.05 14.2 0.45 0 -1 0
-1.05 14.25 0.5 0 0 1
-1.15 14.8 0.05 0 1 0
-1.25 14.8 0.15 0 1 0
-1.35 14.8 0.25 0 1 0
-1.35 14.4 0.55 0 -1 0
-1.35 14.45 0.6 0 0 1
-1.45 14.8 0.35 0 1 0
-1.45 14.55 0.6 0 0 1
-1.55 14.8 0.45 0 1 0
-1.65 14.8 0.55 0 1 0
-1.7 14.65 0.65 -1 0 0
-1.65 14.6 0.65 0 -1 0
-1.65 14.65 0.7 0 0 1
-1.75 14.7 0.65 0 -1 0
-1.75 14.8 0.65 0 1 0
-1.75 14.75 0.7 0 0 1
7.45058e-08 14.75 -0.95 1 0 0
-0.0499999 14.8 -0.95 0 1 0
7.45058e-08 14.65 -0.85 1 0 0
7.45058e-08 14.55 -0.75 1 0 0
7.45058e-08 14.45 -0.65 1 0 0
7.45058e-08 14.35 -0.55 1 0 0
7.45058e-08 14.25 -0.45 1 0 0
7.45058e-08 14.15 -0.35 1 0 0
7.45058e-08 14.05 -0.25 1 0 0
7.45058e-08 13.95 -0.15 1 0 0
7.45058e-08 13.85 -0.05 1 0 0
7.45058e-08 13.75 0.05 1 0 0
7.45058e-08 13.65 0.15 1 0 0
-0.15 14.8 -0.85 0 1 0
-0.15 13.6 0.25 0 -1 0
-0.15 13.65 0.3 0 0 1
-0.25 14.8 -0.75 0 1 0
-0.25 13.75 0.3 0 0 1
-0.35 14.8 -0.65 0 1 0
-0.45 14.8 -0.55 0 1 0
-0.5 13.85 0.35 -1 0 0
-0.45 13.8 0.35 0 -1 0
-0.45 13.85 0.4 0 0 1
-0.55 14.8 -0.45 0 1 0
-0.55 13.9 0.35 0 -1 0
-0.55 13.95 0.4 0 0 1
-0.65 14.8 -0.35 0 1 0
-0.75 14.8 -0.25 0 1 0
-0.85 14.8 -0.15 0 1 0
-0.85 14.1 0.45 0 -1 0
-0.85 14.15 0.5 0 0 1
-0.95 14.8 -0.05 0 1 0
-0.95 14.25 0.5 0 0 1
-1.05 14.8 0.05 0 1 0
-1.15 14.8 0.15 0 1 0
-1.2 14.35 0.55 -1 0 0
-1.15 14.3 0.55 0 -1 0
-1.15 14.35 0.6 0 0 1
-1.25 14.8 0.25 0 1 0
-1.25 14.4 0.55 0 -1 0
-1.25 14.45 0.6 0 0 1
-1.35 14.8 0.35 0 1 0
-1.45 14.8 0.45 0 1 0
-1.55 14.8 0.55 0 1 0
-1.55 14.6 0.65 0 -1 0
-1.55 14.65 0.7 0 0 1
-1.65 14.8 0.65 0 1 0
-1.65 14.75 0.7 0 0 1
7.45058e-08 14.75 -0.85 1 0 0
-0.0499999 14.8 -0.85 0 1 0
7.45058e-08 14.65 -0.75 1 0 0
7.45058e-08 14.55 -0.65 1 0 0
7.45058e-08 14.45 -0.55 1 0 0
7.45058e-08 14.35 -0.45 1 0 0
7.45058e-08 14.25 -0.35 1 0 0
7.45058e-08 14.15 -0.25 1 0 0
7.45058e-08 14.05 -0.15 1 0 0
7.45058e-08 13.95 -0.05 1 0 0
7.45058e-08 13.85 0.05 1 0 0
7.45058e-08 13.75 0.15 1 0 0
7.45058e-08 13.65 0.25 1 0 0
-0.0499999 13.6 0.25 0 -1 0
-0.0499999 13.65 0.3 0 0 1
-0.15 14.8 -0.75 0 1 0
-0.25 14.8 -0.65 0 1 0
-0.35 14.8 -0.55 0 1 0
-0.35 13.8 0.35 0 -1 0
-0.35 13.85 0.4 0 0 1
-0.45 14.8 -0.45 0 1 0
-0.45 13.95 0.4 0 0 1
-0.55 14.8 -0.35 0 1 0
-0.65 14.8 -0.25 0 1 0
-0.7 14.05 0.45 -1 0 0
-0.65 14 0.45 0 -1 0
-0.65 14.05 0.5 0 0 1
-0.75 14.8 -0.15 0 1 0
-0.75 14.1 0.45 0 -1 0
-0.75 14.15 0.5 0 0 1
-0.85 14.8 -0.05 0 1 0
-0.95 14.8 0.05 0 1 0
-1.05 14.8 0.15 0 1 0
-1.05 14.3 0.55 0 -1 0
-1.05 14.35 0.6 0 0 1
-1.15 14.8 0.25 0 1 0
-1.15 14.45 0.6 0 0 1
-1.25 14.8 0.35 0 1 0
-1.35 14.8 0.45 0 1 0
-1.4 14.55 0.65 -1 0 0
-1.35 14.5 0.65 0 -1 0
-1.35 14.55 0.7 0 0 1
-1.45 14.8 0.55 0 1 0
-1.45 14.6 0.65 0 -1 0
-1.45 14.65 0.7 0 0 1
-1.55 14.8 0.65 0 1 0
7.45058e-08 14.75 -0.75 1 0 0
-0.0499999 14.8 -0.75 0 1 0
7.45058e-08 14.65 -0.65 1 0 0
7.45058e-08 14.55 -0.55 1 0 0
7.45058e-08 14.45 -0.45 1 0 0
7.45058e-08 14.35 -0.35 1 0 0
7.45058e-08 14.25 -0.25 1 0 0
7.45058e-08 14.15 -0.15 1 0 0
7.45058e-08 14.05 -0.05 1 0 0
7.45058e-08 13.95 0.05 1 0 0
7.45058e-08 13.85 0.15 1 0 0
7.45058e-08 13.75 0.25 1 0 0
-0.15 14.8 -0.65 0 1 0
-0.2 13.75 0.35 -1 0 0
-0.15 13.7 0.35 0 -1 0
-0.15 13.75 0.4 0 0 1
-0.25 14.8 -0.55 0 1 0
-0.25 13.8 0.35 0 -1 0
-0.25 13.85 0.4 0 0 1
-0.35 14.8 -0.45 0 1 0
-0.45 14.8 -0.35 0 1 0
-0.55 14.8 -0.25 0 1 0
-0.55 14 0.45 0 -1 0
-0.55 14.05 0.5 0 0 1
-0.65 14.8 -0.15 0 1 0
-0.65 14.15 0.5 0 0 1
-0.75 14.8 -0.05 0 1 0
-0.85 14.8 0.05 0 1 0
-0.9 14.25 0.55 -1 0 0
-0.85 14.2 0.55 0 -1 0
-0.85 14.25 0.6 0 0 1
-0.95 14.8 0.15 0 1 0
-0.95 14.3 0.55 0 -1 0
-0.95 14.35 0.6 0 0 1
-1.05 14.8 0.25 0 1 0
-1.15 14.8 0.35 0 1 0
-1.25 14.8 0.45 0 1 0
-1.25 14.5 0.65 0 -1 0
-1.25 14.55 0.7 0 0 1
-1.35 14.8 0.55 0 1 0
-1.35 14.65 0.7 0 0 1
-1.45 14.8 0.65 0 1 0
-1.6 14.75 0.75 -1 0 0
-1.55 14.7 0.75 0 -1 0
-1.55 14.8 0.75 0 1 0
-1.55 14.75 0.8 0 0 1
7.45058e-08 14.75 -0.65 1 0 0
-0.0499999 14.8 -0.65 0 1 0
7.45058e-08 14.65 -0.55 1 0 0
7.45058e-08 14.55 -0.45 1 0 0
7.45058e-08 14.45 -0.35 1 0 0
7.45058e-08 14.35 -0.25 1 0 0
7.45058e-08 14.25 -0.15 1 0 0
7.45058e-08 14.15 -0.05 1 0 0
7.45058e-08 14.05 0.05 1 0 0
7.45058e-08 13.95 0.15 1 0 0
7.45058e-08 13.85 0.25 1 0 0
7.45058e-08 13.75 0.35 1 0 0
-0.0499999 13.7 0.35 0 -1 0
-0.0499999 13.75 0.4 0 0 1
-0.15 14.8 -0.55 0 1 0
-0.25 14.8 -0.45 0 1 0
-0.35 14.8 -0.35 0 1 0
-0.4 13.95 0.45 -1 0 0
-0.35 13.9 0.45 0 -1 0
-0.35 13.95 0.5 0 0 1
-0.45 14.8 -0.25 0 1 0
-0.45 14 0.45 0 -1 0
-0.45 14.05 0.5 0 0 1
-0.55 14.8 -0.15 0 1 0
-0.65 14.8 -0.05 0 1 0
-0.75 14.8 0.05 0 1 0
-0.75 14.2 0.55 0 -1 0
-0.75 14.25 0.6 0 0 1
-0.85 14.8 0.15 0 1 0
-0.95 14.8 0.25 0 1 0
-1.05 14.8 0.35 0 1 0
-1.1 14.45 0.65 -1 0 0
-1.05 14.4 0.65 0 -1 0
-1.05 14.45 0.7 0 0 1
-1.15 14.8 0.45 0 1 0
-1.15 14.5 0.65 0 -1 0
-1.15 14.55 0.7 0 0 1
-1.25 14.8 0.55 0 1 0
-1.35 14.8 0.65 0 1 0
-1.45 14.7 0.75 0 -1 0
-1.45 14.8 0.75 0 1 0
-1.45 14.75 0.8 0 0 1
7.45058e-08 14.75 -0.55 1 0 0
-0.0499999 14.8 -0.55 0 1 0
7.45058e-08 14.65 -0.45 1 0 0
7.45058e-08 14.55 -0.35 1 0 0
7.45058e-08 14.45 -0.25 1 0 0
7.45058e-08 14.35 -0.15 1 0 0
7.45058e-08 14.25 -0.05 1 0 0
7.45058e-08 14.15 0.05 1 0 0
7.45058e-08 14.05 0.15 1 0 0
7.45058e-08 13.95 0.25 1 0 0
7.45058e-08 13.85 0.35 1 0 0
-0.15 14.8 -0.45 0 1 0
-0.2 13.85 0.45 -1 0 0
-0.15 13.8 0.45 0 -1 0
-0.15 13.85 0.5 0 0 1
-0.25 14.8 -0.35 0 1 0
-0.25 13.9 0.45 0 -1 0
-0.25 13.95 0.5 0 0 1
-0.35 14.8 -0.25 0 1 0
-0.45 14.8 -0.15 0 1 0
-0.55 14.8 -0.05 0 1 0
-0.6 14.15 0.55 -1 0 0
-0.55 14.1 0.55 0 -1 0
-0.55 14.15 0.6 0 0 1
-0.65 14.8 0.05 0 1 0
-0.65 14.2 0.55 0 -1 0
-0.65 14.25 0.6 0 0 1
-0.75 14.8 0.15 0 1 0
-0.85 14.8 0.25 0 1 0
-0.9 14.35 0.65 -1 0 0
-0.85 14.3 0.65 0 -1 0
-0.85 14.35 0.7 0 0 1
-0.95 14.8 0.35 0 1 0
-0.95 14.4 0.65 0 -1 0
-0.95 14.45 0.7 0 0 1
-1.05 14.8 0.45 0 1 0
-1.15 14.8 0.55 0 1 0
-1.25 14.8 0.65 0 1 0
-1.3 14.65 0.75 -1 0 0
-1.25 14.6 0.75 0 -1 0
-1.25 14.65 0.8 0 0 1
-1.35 14.7 0.75 0 -1 0
-1.35 14.8 0.75 0 1 0
-1.35 14.75 0.8 0 0 1
7.45058e-08 14.75 -0.45 1 0 0
-0.0499999 14.8 -0.45 0 1 0
7.45058e-08 14.65 -0.35 1 0 0
7.45058e-08 14.55 -0.25 1 0 0
7.45058e-08 14.45 -0.15 1 0 0
7.45058e-08 14.35 -0.05 1 0 0
7.45058e-08 14.25 0.05 1 0 0
7.45058e-08 14.15 0.15 1 0 0
7.45058e-08 14.05 0.25 1 0 0
7.45058e-08 13.95 0.35 1 0 0
7.45058e-08 13.85 0.45 1 0 0
-0.0499999 13.8 0.45 0 -1 0
-0.0499999 13.85 0.5 0 0 1
-0.15 14.8 -0.35 0 1 0
-0.15 13.95 0.5 0 0 1
-0.25 14.8 -0.25 0 1 0
-0.35 14.8 -0.15 0 1 0
-0.4 14.05 0.55 -1 0 0
-0.35 14 0.55 0 -1 0
-0.35 14.05 0.6 0 0 1
-0.45 14.8 -0.05 0 1 0
-0.45 14.1 0.55 0 -1 0
-0.45 14.15 0.6 0 0 1
-0.55 14.8 0.05 0 1 0
-0.65 14.8 0.15 0 1 0
-0.75 14.8 0.25 0 1 0
-0.75 14.3 0.65 0 -1 0
-0.75 14.35 0.7 0 0 1
-0.85 14.8 0.35 0 1 0
-0.85 14.45 0.7 0 0 1
-0.95 14.8 0.45 0 1 0
-1.05 14.8 0.55 0 1 0
-1.1 14.55 0.75 -1 0 0
-1.05 14.5 0.75 0 -1 0
-1.05 14.55 0.8 0 0 1
-1.15 14.8 0.65 0 1 0
-1.15 14.6 0.75 0 -1 0
-1.15 14.65 0.8 0 0 1
-1.25 14.8 0.75 0 1 0
7.45058e-08 14.75 -0.35 1 0 0
-0.0499999 14.8 -0.35 0 1 0
7.45058e-08 14.65 -0.25 1 0 0
7.45058e-08 14.55 -0.15 1 0 0
7.45058e-08 14.45 -0.05 1 0 0
7.45058e-08 14.35 0.05 1 0 0
7.45058e-08 14.25 0.15 1 0 0
7.45058e-08 14.15 0.25 1 0 0
7.45058e-08 14.05 0.35 1 0 0
7.45058e-08 13.95 0.45 1 0 0
-0.15 14.8 -0.25 0 1 0
-0.25 14.8 -0.15 0 1 0
-0.25 14 0.55 0 -1 0
-0.25 14.05 0.6 0 0 1
-0.35 14.8 -0.05 0 1 0
-0.35 14.15 0.6 0 0 1
-0.45 14.8 0.05 0 1 0
-0.55 14.8 0.15 0 1 0
-0.6 14.25 0.65 -1 0 0
-0.55 14.2 0.65 0 -1 0
-0.55 14.25 0.7 0 0 1
-0.65 14.8 0.25 0 1 0
-0.65 14.3 0.65 0 -1 0
-0.65 14.35 0.7 0 0 1
-0.75 14.8 0.35 0 1 0
-0.85 14.8 0.45 0 1 0
-0.95 14.8 0.55 0 1 0
-0.95 14.5 0.75 0 -1 0
-0.95 14.55 0.8 0 0 1
-1.05 14.8 0.65 0 1 0
-1.05 14.65 0.8 0 0 1
-1.15 14.8 0.75 0 1 0
-1.3 14.75 0.85 -1 0 0
-1.25 14.7 0.85 0 -1 0
-1.25 14.8 0.85 0 1 0
-1.25 14.75 0.9 0 0 1
7.45058e-08 14.75 -0.25 1 0 0
-0.0499999 14.8 -0.25 0 1 0
7.45058e-08 14.65 -0.15 1 0 0
7.45058e-08 14.55 -0.05 1 0 0
7.45058e-08 14.45 0.05 1 0 0
7.45058e-08 14.35 0.15 1 0 0
7.45058e-08 14.25 0.25 1 0 0
7.45058e-08 14.15 0.35 1 0 0
7.45058e-08 14.05 0.45 1 0 0
-0.0999999 13.95 0.55 -1 0 0
7.45058e-08 13.95 0.55 1 0 0
-0.0499999 13.9 0.55 0 -1 0
-0.0499999 13.95 0.6 0 0 1
-0.15 14.8 -0.15 0 1 0
-0.15 14 0.55 0 -1 0
-0.15 14.05 0.6 0 0 1
-0.25 14.8 -0.05 0 1 0
-0.35 14.8 0.05 0 1 0
-0.45 14.8 0.15 0 1 0
-0.45 14.2 0.65 0 -1 0
-0.45 14.25 0.7 0 0 1
-0.55 14.8 0.25 0 1 0
-0.55 14.35 0.7 0 0 1
-0.65 14.8 0.35 0 1 0
-0.75 14.8 0.45 0 1 0
-0.8 14.45 0.75 -1 0 0
-0.75 14.4 0.75 0 -1 0
-0.75 14.45 0.8 0 0 1
-0.85 14.8 0.55 0 1 0
-0.85 14.5 0.75 0 -1 0
-0.85 14.55 0.8 0 0 1
-0.95 14.8 0.65 0 1 0
-1.05 14.8 0.75 0 1 0
-1.15 14.7 0.85 0 -1 0
-1.15 14.8 0.85 0 1 0
-1.15 14.75 0.9 0 0 1
7.45058e-08 14.75 -0.15 1 0 0
-0.0499999 14.8 -0.15 0 1 0
7.45058e-08 14.65 -0.05 1 0 0
7.45058e-08 14.55 0.05 1 0 0
7.45058e-08 14.45 0.15 1 0 0
7.45058e-08 14.35 0.25 1 0 0
7.45058e-08 14.25 0.35 1 0 0
7.45058e-08 14.15 0.45 1 0 0
7.45058e-08 14.05 0.55 1 0 0
-0.0499999 14.05 0.6 0 0 1
-0.15 14.8 -0.05 0 1 0
-0.25 14.8 0.05 0 1 0
-0.3 14.15 0.65 -1 0 0
-0.25 14.1 0.65 0 -1 0
-0.25 14.15 0.7 0 0 1
-0.35 14.8 0.15 0 1 0
-0.35 14.2 0.65 0 -1 0
-0.35 14.25 0.7 0 0 1
-0.45 14.8 0.25 0 1 0
-0.55 14.8 0.35 0 1 0
-0.65 14.8 0.45 0 1 0
-0.65 14.4 0.75 0 -1 0
-0.65 14.45 0.8 0 0 1
-0.75 14.8 0.55 0 1 0
-0.75 14.55 0.8 0 0 1
-0.85 14.8 0.65 0 1 0
-0.95 14.8 0.75 0 1 0
-1 14.65 0.85 -1 0 0
-0.95 14.6 0.85 0 -1 0
-0.95 14.65 0.9 0 0 1
-1.05 14.7 0.85 0 -1 0
-1.05 14.8 0.85 0 1 0
-1.05 14.75 0.9 0 0 1
7.45058e-08 14.75 -0.05 1 0 0
-0.0499999 14.8 -0.05 0 1 0
7.45058e-08 14.65 0.05 1 0 0
7.45058e-08 14.55 0.15 1 0 0
7.45058e-08 14.45 0.25 1 0 0
7.45058e-08 14.35 0.35 1 0 0
7.45058e-08 14.25 0.45 1 0 0
7.45058e-08 14.15 0.55 1 0 0
-0.15 14.8 0.05 0 1 0
-0.15 14.1 0.65 0 -1 0
-0.15 14.15 0.7 0 0 1
-0.25 14.8 0.15 0 1 0
-0.25 14.25 0.7 0 0 1
-0.35 14.8 0.25 0 1 0
-0.45 14.8 0.35 0 1 0
-0.5 14.35 0.75 -1 0 0
-0.45 14.3 0.75 0 -1 0
-0.45 14.35 0.8 0 0 1
-0.55 14.8 0.45 0 1 0
-0.55 14.4 0.75 0 -1 0
-0.55 14.45 0.8 0 0 1
-0.65 14.8 0.55 0 1 0
-0.75 14.8 0.65 0 1 0
-0.85 14.8 0.75 0 1 0
-0.85 14.6 0.85 0 -1 0
-0.85 14.65 0.9 0 0 1
-0.95 14.8 0.85 0 1 0
-0.95 14.75 0.9 0 0 1
7.45058e-08 14.75 0.05 1 0 0
-0.0499999 14.8 0.05 0 1 0
7.45058e-08 14.65 0.15 1 0 0
7.45058e-08 14.55 0.25 1 0 0
7.45058e-08 14.45 0.35 1 0 0
7.45058e-08 14.35 0.45 1 0 0
7.45058e-08 14.25 0.55 1 0 0
7.45058e-08 14.15 0.65 1 0 0
-0.0499999 14.1 0.65 0 -1 0
-0.0499999 14.15 0.7 0 0 1
-0.15 14.8 0.15 0 1 0
-0.25 14.8 0.25 0 1 0
-0.35 14.8 0.35 0 1 0
-0.35 14.3 0.75 0 -1 0
-0.35 14.35 0.8 0 0 1
-0.45 14.8 0.45 0 1 0
-0.55 14.8 0.55 0 1 0
-0.65 14.8 0.65 0 1 0
-0.7 14.55 0.85 -1 0 0
-0.65 14.5 0.85 0 -1 0
-0.65 14.55 0.9 0 0 1
-0.75 14.8 0.75 0 1 0
-0.75 14.6 0.85 0 -1 0
-0.75 14.65 0.9 0 0 1
-0.85 14.8 0.85 0 1 0
7.45058e-08 14.75 0.15 1 0 0
-0.0499999 14.8 0.15 0 1 0
7.45058e-08 14.65 0.25 1 0 0
7.45058e-08 14.55 0.35 1 0 0
7.45058e-08 14.45 0.45 1 0 0
7.45058e-08 14.35 0.55 1 0 0
7.45058e-08 14.25 0.65 1 0 0
-0.15 14.8 0.25 0 1 0
-0.2 14.25 0.75 -1 0 0
-0.15 14.2 0.75 0 -1 0
