13.75 14.65 -2.1 0 0 -1
13.75 13 -0.45 0 -1 0
13.65 14.8 -2.05 0 1 0
13.65 14.75 -2.1 0 0 -1
13.65 13 -0.35 0 -1 0
13.55 14.8 -1.95 0 1 0
13.55 13 -0.25 0 -1 0
13.55 13.05 -0.2 0 0 1
13.45 14.8 -1.85 0 1 0
13.35 14.8 -1.75 0 1 0
13.35 13.1 -0.15 0 -1 0
13.35 13.15 -0.1 0 0 1
13.25 14.8 -1.65 0 1 0
13.15 14.8 -1.55 0 1 0
13.15 13.2 -0.05 0 -1 0
13.15 13.25 4.47035e-08 0 0 1
13.05 14.8 -1.45 0 1 0
12.95 14.8 -1.35 0 1 0
12.95 13.3 0.05 0 -1 0
12.95 13.35 0.1 0 0 1
12.85 14.8 -1.25 0 1 0
12.75 14.8 -1.15 0 1 0
12.75 13.4 0.15 0 -1 0
12.75 13.45 0.2 0 0 1
12.65 14.8 -1.05 0 1 0
12.55 14.8 -0.95 0 1 0
12.55 13.5 0.25 0 -1 0
12.55 13.55 0.3 0 0 1
12.45 14.8 -0.85 0 1 0
12.45 13.65 0.3 0 0 1
12.35 14.8 -0.75 0 1 0
12.25 14.8 -0.65 0 1 0
12.25 13.7 0.35 0 -1 0
12.25 13.75 0.4 0 0 1
12.15 14.8 -0.55 0 1 0
12.05 14.8 -0.45 0 1 0
12.05 13.8 0.45 0 -1 0
12.05 13.85 0.5 0 0 1
11.9 14.75 -0.35 -1 0 0
11.95 14.8 -0.35 0 1 0
11.9 14.65 -0.25 -1 0 0
11.9 14.55 -0.15 -1 0 0
11.9 14.45 -0.05 -1 0 0
11.9 14.35 0.05 -1 0 0
11.9 14.25 0.15 -1 0 0
11.9 14.15 0.25 -1 0 0
11.9 14.05 0.35 -1 0 0
11.9 13.95 0.45 -1 0 0
15.45 13 -2.05 0 -1 0
15.45 13.05 -2.1 0 0 -1
15.35 13.15 -2.1 0 0 -1
15.35 13 -1.95 0 -1 0
15.25 13.25 -2.1 0 0 -1
15.25 13 -1.85 0 -1 0
15.15 13.35 -2.1 0 0 -1
15.15 13 -1.75 0 -1 0
15.05 13.45 -2.1 0 0 -1
15.05 13 -1.65 0 -1 0
14.95 13.55 -2.1 0 0 -1
14.95 13 -1.55 0 -1 0
14.85 13.65 -2.1 0 0 -1
14.85 13 -1.45 0 -1 0
14.75 13.75 -2.1 0 0 -1
14.75 13 -1.35 0 -1 0
14.65 13.85 -2.1 0 0 -1
14.65 13 -1.25 0 -1 0
14.55 13.95 -2.1 0 0 -1
14.55 13 -1.15 0 -1 0
14.45 14.05 -2.1 0 0 -1
14.45 13 -1.05 0 -1 0
14.35 14.15 -2.1 0 0 -1
14.35 13 -0.95 0 -1 0
14.25 14.25 -2.1 0 0 -1
14.25 13 -0.85 0 -1 0
14.15 14.35 -2.1 0 0 -1
14.15 13 -0.75 0 -1 0
14.05 14.45 -2.1 0 0 -1
14.05 13 -0.65 0 -1 0
13.95 14.55 -2.1 0 0 -1
13.95 13 -0.55 0 -1 0
13.85 14.65 -2.1 0 0 -1
13.85 13 -0.45 0 -1 0
13.75 14.8 -2.05 0 1 0
13.75 14.75 -2.1 0 0 -1
13.75 13 -0.35 0 -1 0
13.65 14.8 -1.95 0 1 0
13.65 13 -0.25 0 -1 0
13.65 13.05 -0.2 0 0 1
13.55 14.8 -1.85 0 1 0
13.45 14.8 -1.75 0 1 0
13.45 13.1 -0.15 0 -1 0
13.45 13.15 -0.1 0 0 1
13.35 14.8 -1.65 0 1 0
13.25 14.8 -1.55 0 1 0
13.25 13.2 -0.05 0 -1 0
13.25 13.25 4.47035e-08 0 0 1
13.15 14.8 -1.45 0 1 0
13.05 14.8 -1.35 0 1 0
13.05 13.3 0.05 0 -1 0
13.05 13.35 0.1 0 0 1
12.95 14.8 -1.25 0 1 0
12.85 14.8 -1.15 0 1 0
12.85 13.4 0.15 0 -1 0
12.85 13.45 0.2 0 0 1
12.75 14.8 -1.05 0 1 0
12.65 14.8 -0.95 0 1 0
12.65 13.5 0.25 0 -1 0
12.65 13.55 0.3 0 0 1
12.55 14.8 -0.85 0 1 0
12.55 13.65 0.3 0 0 1
12.45 14.8 -0.75 0 1 0
12.35 14.8 -0.65 0 1 0
12.35 13.7 0.35 0 -1 0
12.35 13.75 0.4 0 0 1
12.25 14.8 -0.55 0 1 0
12.15 14.8 -0.45 0 1 0
12.15 13.8 0.45 0 -1 0
12.15 13.85 0.5 0 0 1
12.05 14.8 -0.35 0 1 0
11.9 14.75 -0.25 -1 0 0
11.95 14.8 -0.25 0 1 0
11.9 14.65 -0.15 -1 0 0
11.9 14.55 -0.05 -1 0 0
11.9 14.45 0.05 -1 0 0
11.9 14.35 0.15 -1 0 0
11.9 14.25 0.25 -1 0 0
11.9 14.15 0.35 -1 0 0
11.9 14.05 0.45 -1 0 0
11.9 13.95 0.55 -1 0 0
11.95 13.9 0.55 0 -1 0
11.95 13.95 0.6 0 0 1
15.55 13 -2.05 0 -1 0
15.55 13.05 -2.1 0 0 -1
15.45 13.15 -2.1 0 0 -1
15.45 13 -1.95 0 -1 0
15.35 13.25 -2.1 0 0 -1
15.35 13 -1.85 0 -1 0
15.25 13.35 -2.1 0 0 -1
15.25 13 -1.75 0 -1 0
15.15 13.45 -2.1 0 0 -1
15.15 13 -1.65 0 -1 0
15.05 13.55 -2.1 0 0 -1
15.05 13 -1.55 0 -1 0
14.95 13.65 -2.1 0 0 -1
14.95 13 -1.45 0 -1 0
14.85 13.75 -2.1 0 0 -1
14.85 13 -1.35 0 -1 0
14.75 13.85 -2.1 0 0 -1
14.75 13 -1.25 0 -1 0
14.65 13.95 -2.1 0 0 -1
14.65 13 -1.15 0 -1 0
14.55 14.05 -2.1 0 0 -1
14.55 13 -1.05 0 -1 0
14.45 14.15 -2.1 0 0 -1
14.45 13 -0.95 0 -1 0
14.35 14.25 -2.1 0 0 -1
14.35 13 -0.85 0 -1 0
14.25 14.35 -2.1 0 0 -1
14.25 13 -0.75 0 -1 0
14.15 14.45 -2.1 0 0 -1
14.15 13 -0.65 0 -1 0
14.05 14.55 -2.1 0 0 -1
14.05 13 -0.55 0 -1 0
13.95 14.65 -2.1 0 0 -1
13.95 13 -0.45 0 -1 0
13.85 14.8 -2.05 0 1 0
13.85 14.75 -2.1 0 0 -1
13.85 13 -0.35 0 -1 0
13.75 14.8 -1.95 0 1 0
13.75 13 -0.25 0 -1 0
13.75 13.05 -0.2 0 0 1
13.65 14.8 -1.85 0 1 0
13.55 14.8 -1.75 0 1 0
13.55 13.1 -0.15 0 -1 0
13.55 13.15 -0.1 0 0 1
13.45 14.8 -1.65 0 1 0
13.35 14.8 -1.55 0 1 0
13.35 13.2 -0.05 0 -1 0
13.35 13.25 4.47035e-08 0 0 1
13.25 14.8 -1.45 0 1 0
13.15 14.8 -1.35 0 1 0
13.15 13.3 0.05 0 -1 0
13.15 13.35 0.1 0 0 1
13.05 14.8 -1.25 0 1 0
12.95 14.8 -1.15 0 1 0
12.95 13.4 0.15 0 -1 0
12.95 13.45 0.2 0 0 1
12.85 14.8 -1.05 0 1 0
12.75 14.8 -0.95 0 1 0
12.75 13.5 0.25 0 -1 0
12.75 13.55 0.3 0 0 1
12.65 14.8 -0.85 0 1 0
12.65 13.65 0.3 0 0 1
12.55 14.8 -0.75 0 1 0
12.45 14.8 -0.65 0 1 0
12.45 13.7 0.35 0 -1 0
12.45 13.75 0.4 0 0 1
12.35 14.8 -0.55 0 1 0
12.25 14.8 -0.45 0 1 0
12.25 13.8 0.45 0 -1 0
12.25 13.85 0.5 0 0 1
12.15 14.8 -0.35 0 1 0
12.05 14.8 -0.25 0 1 0
12.05 13.9 0.55 0 -1 0
12.05 13.95 0.6 0 0 1
11.9 14.75 -0.15 -1 0 0
11.95 14.8 -0.15 0 1 0
11.9 14.65 -0.05 -1 0 0
11.9 14.55 0.05 -1 0 0
11.9 14.45 0.15 -1 0 0
11.9 14.35 0.25 -1 0 0
11.9 14.25 0.35 -1 0 0
11.9 14.15 0.45 -1 0 0
11.9 14.05 0.55 -1 0 0
15.65 13 -2.05 0 -1 0
15.65 13.05 -2.1 0 0 -1
15.55 13.15 -2.1 0 0 -1
15.55 13 -1.95 0 -1 0
15.45 13.25 -2.1 0 0 -1
15.45 13 -1.85 0 -1 0
15.35 13.35 -2.1 0 0 -1
15.35 13 -1.75 0 -1 0
15.25 13.45 -2.1 0 0 -1
15.25 13 -1.65 0 -1 0
15.15 13.55 -2.1 0 0 -1
15.15 13 -1.55 0 -1 0
15.05 13.65 -2.1 0 0 -1
15.05 13 -1.45 0 -1 0
14.95 13.75 -2.1 0 0 -1
14.95 13 -1.35 0 -1 0
14.85 13.85 -2.1 0 0 -1
14.85 13 -1.25 0 -1 0
14.75 13.95 -2.1 0 0 -1
14.75 13 -1.15 0 -1 0
14.65 14.05 -2.1 0 0 -1
14.65 13 -1.05 0 -1 0
14.55 14.15 -2.1 0 0 -1
14.55 13 -0.95 0 -1 0
14.45 14.25 -2.1 0 0 -1
14.45 13 -0.85 0 -1 0
14.35 14.35 -2.1 0 0 -1
14.35 13 -0.75 0 -1 0
14.25 14.45 -2.1 0 0 -1
14.25 13 -0.65 0 -1 0
14.15 14.55 -2.1 0 0 -1
14.15 13 -0.55 0 -1 0
14.05 14.65 -2.1 0 0 -1
14.05 13 -0.45 0 -1 0
13.95 14.8 -2.05 0 1 0
13.95 14.75 -2.1 0 0 -1
13.95 13 -0.35 0 -1 0
13.85 14.8 -1.95 0 1 0
13.85 13 -0.25 0 -1 0
13.85 13.05 -0.2 0 0 1
13.75 14.8 -1.85 0 1 0
13.65 14.8 -1.75 0 1 0
13.65 13.1 -0.15 0 -1 0
13.65 13.15 -0.1 0 0 1
13.55 14.8 -1.65 0 1 0
13.45 14.8 -1.55 0 1 0
13.45 13.2 -0.05 0 -1 0
13.45 13.25 4.47035e-08 0 0 1
13.35 14.8 -1.45 0 1 0
13.25 14.8 -1.35 0 1 0
13.25 13.3 0.05 0 -1 0
13.25 13.35 0.1 0 0 1
13.15 14.8 -1.25 0 1 0
13.05 14.8 -1.15 0 1 0
13.05 13.4 0.15 0 -1 0
13.05 13.45 0.2 0 0 1
12.95 14.8 -1.05 0 1 0
12.85 14.8 -0.95 0 1 0
12.85 13.5 0.25 0 -1 0
12.85 13.55 0.3 0 0 1
12.75 14.8 -0.85 0 1 0
12.75 13.65 0.3 0 0 1
12.65 14.8 -0.75 0 1 0
12.55 14.8 -0.65 0 1 0
12.55 13.7 0.35 0 -1 0
12.55 13.75 0.4 0 0 1
12.45 14.8 -0.55 0 1 0
12.35 14.8 -0.45 0 1 0
12.35 13.8 0.45 0 -1 0
12.35 13.85 0.5 0 0 1
12.25 14.8 -0.35 0 1 0
12.15 14.8 -0.25 0 1 0
12.15 13.9 0.55 0 -1 0
12.15 13.95 0.6 0 0 1
12.05 14.8 -0.15 0 1 0
11.9 14.75 -0.05 -1 0 0
11.95 14.8 -0.05 0 1 0
11.9 14.65 0.05 -1 0 0
11.9 14.55 0.15 -1 0 0
11.9 14.45 0.25 -1 0 0
11.9 14.35 0.35 -1 0 0
11.9 14.25 0.45 -1 0 0
11.9 14.15 0.55 -1 0 0
11.9 14.05 0.65 -1 0 0
11.95 14 0.65 0 -1 0
11.95 14.05 0.7 0 0 1
15.75 13 -2.05 0 -1 0
15.75 13.05 -2.1 0 0 -1
15.65 13.15 -2.1 0 0 -1
15.65 13 -1.95 0 -1 0
15.55 13.25 -2.1 0 0 -1
15.55 13 -1.85 0 -1 0
15.45 13.35 -2.1 0 0 -1
15.45 13 -1.75 0 -1 0
15.35 13.45 -2.1 0 0 -1
15.35 13 -1.65 0 -1 0
15.25 13.55 -2.1 0 0 -1
15.25 13 -1.55 0 -1 0
15.15 13.65 -2.1 0 0 -1
15.15 13 -1.45 0 -1 0
15.05 13.75 -2.1 0 0 -1
15.05 13 -1.35 0 -1 0
14.95 13.85 -2.1 0 0 -1
14.95 13 -1.25 0 -1 0
14.85 13.95 -2.1 0 0 -1
14.85 13 -1.15 0 -1 0
14.75 14.05 -2.1 0 0 -1
14.75 13 -1.05 0 -1 0
14.65 14.15 -2.1 0 0 -1
14.65 13 -0.95 0 -1 0
14.55 14.25 -2.1 0 0 -1
14.55 13 -0.85 0 -1 0
14.45 14.35 -2.1 0 0 -1
14.45 13 -0.75 0 -1 0
14.35 14.45 -2.1 0 0 -1
14.35 13 -0.65 0 -1 0
14.25 14.55 -2.1 0 0 -1
14.25 13 -0.55 0 -1 0
14.15 14.65 -2.1 0 0 -1
14.15 13 -0.45 0 -1 0
14.05 14.8 -2.05 0 1 0
14.05 14.75 -2.1 0 0 -1
14.05 13 -0.35 0 -1 0
13.95 14.8 -1.95 0 1 0
13.95 13 -0.25 0 -1 0
13.95 13.05 -0.2 0 0 1
13.85 14.8 -1.85 0 1 0
13.75 14.8 -1.75 0 1 0
13.75 13.1 -0.15 0 -1 0
13.75 13.15 -0.1 0 0 1
13.65 14.8 -1.65 0 1 0
13.55 14.8 -1.55 0 1 0
13.55 13.2 -0.05 0 -1 0
13.55 13.25 4.47035e-08 0 0 1
13.45 14.8 -1.45 0 1 0
13.35 14.8 -1.35 0 1 0
13.35 13.3 0.05 0 -1 0
13.35 13.35 0.1 0 0 1
13.25 14.8 -1.25 0 1 0
13.15 14.8 -1.15 0 1 0
13.15 13.4 0.15 0 -1 0
13.15 13.45 0.2 0 0 1
13.05 14.8 -1.05 0 1 0
12.95 14.8 -0.95 0 1 0
12.95 13.5 0.25 0 -1 0
12.95 13.55 0.3 0 0 1
12.85 14.8 -0.85 0 1 0
12.85 13.65 0.3 0 0 1
12.75 14.8 -0.75 0 1 0
12.65 14.8 -0.65 0 1 0
12.65 13.7 0.35 0 -1 0
12.65 13.75 0.4 0 0 1
12.55 14.8 -0.55 0 1 0
12.45 14.8 -0.45 0 1 0
12.45 13.8 0.45 0 -1 0
12.45 13.85 0.5 0 0 1
12.35 14.8 -0.35 0 1 0
12.25 14.8 -0.25 0 1 0
12.25 13.9 0.55 0 -1 0
12.25 13.95 0.6 0 0 1
12.15 14.8 -0.15 0 1 0
12.05 14.8 -0.05 0 1 0
12.05 14 0.65 0 -1 0
12.05 14.05 0.7 0 0 1
11.9 14.75 0.05 -1 0 0
11.95 14.8 0.05 0 1 0
11.9 14.65 0.15 -1 0 0
11.9 14.55 0.25 -1 0 0
11.9 14.45 0.35 -1 0 0
11.9 14.35 0.45 -1 0 0
11.9 14.25 0.55 -1 0 0
11.9 14.15 0.65 -1 0 0
11.95 14.15 0.7 0 0 1
15.85 13 -2.05 0 -1 0
15.85 13.05 -2.1 0 0 -1
15.75 13.15 -2.1 0 0 -1
15.75 13 -1.95 0 -1 0
15.65 13.25 -2.1 0 0 -1
15.65 13 -1.85 0 -1 0
15.55 13.35 -2.1 0 0 -1
15.55 13 -1.75 0 -1 0
15.45 13.45 -2.1 0 0 -1
15.45 13 -1.65 0 -1 0
15.35 13.55 -2.1 0 0 -1
15.35 13 -1.55 0 -1 0
15.25 13.65 -2.1 0 0 -1
15.25 13 -1.45 0 -1 0
15.15 13.75 -2.1 0 0 -1
15.15 13 -1.35 0 -1 0
15.05 13.85 -2.1 0 0 -1
15.05 13 -1.25 0 -1 0
14.95 13.95 -2.1 0 0 -1
14.95 13 -1.15 0 -1 0
14.85 14.05 -2.1 0 0 -1
14.85 13 -1.05 0 -1 0
14.75 14.15 -2.1 0 0 -1
14.75 13 -0.95 0 -1 0
14.65 14.25 -2.1 0 0 -1
14.65 13 -0.85 0 -1 0
14.55 14.35 -2.1 0 0 -1
14.55 13 -0.75 0 -1 0
14.45 14.45 -2.1 0 0 -1
14.45 13 -0.65 0 -1 0
14.35 14.55 -2.1 0 0 -1
14.35 13 -0.55 0 -1 0
14.25 14.65 -2.1 0 0 -1
14.25 13 -0.45 0 -1 0
14.15 14.8 -2.05 0 1 0
14.15 14.75 -2.1 0 0 -1
14.15 13 -0.35 0 -1 0
14.05 14.8 -1.95 0 1 0
14.05 13 -0.25 0 -1 0
14.05 13.05 -0.2 0 0 1
13.95 14.8 -1.85 0 1 0
13.85 14.8 -1.75 0 1 0
13.85 13.1 -0.15 0 -1 0
13.85 13.15 -0.1 0 0 1
13.75 14.8 -1.65 0 1 0
13.65 14.8 -1.55 0 1 0
13.65 13.2 -0.05 0 -1 0
13.65 13.25 4.47035e-08 0 0 1
13.55 14.8 -1.45 0 1 0
13.45 14.8 -1.35 0 1 0
13.45 13.3 0.05 0 -1 0
13.45 13.35 0.1 0 0 1
13.35 14.8 -1.25 0 1 0
13.25 14.8 -1.15 0 1 0
13.25 13.4 0.15 0 -1 0
13.25 13.45 0.2 0 0 1
13.15 14.8 -1.05 0 1 0
13.05 14.8 -0.95 0 1 0
13.05 13.5 0.25 0 -1 0
13.05 13.55 0.3 0 0 1
12.95 14.8 -0.85 0 1 0
12.95 13.65 0.3 0 0 1
12.85 14.8 -0.75 0 1 0
12.75 14.8 -0.65 0 1 0
12.75 13.7 0.35 0 -1 0
12.75 13.75 0.4 0 0 1
12.65 14.8 -0.55 0 1 0
12.55 14.8 -0.45 0 1 0
12.55 13.8 0.45 0 -1 0
12.55 13.85 0.5 0 0 1
12.45 14.8 -0.35 0 1 0
12.35 14.8 -0.25 0 1 0
12.35 13.9 0.55 0 -1 0
12.35 13.95 0.6 0 0 1
12.25 14.8 -0.15 0 1 0
12.15 14.8 -0.05 0 1 0
12.15 14 0.65 0 -1 0
12.15 14.05 0.7 0 0 1
12.05 14.8 0.05 0 1 0
12.05 14.15 0.7 0 0 1
11.9 14.75 0.15 -1 0 0
11.95 14.8 0.15 0 1 0
11.9 14.65 0.25 -1 0 0
11.9 14.55 0.35 -1 0 0
11.9 14.45 0.45 -1 0 0
11.9 14.35 0.55 -1 0 0
11.9 14.25 0.65 -1 0 0
15.95 13 -2.05 0 -1 0
15.95 13.05 -2.1 0 0 -1
15.85 13.15 -2.1 0 0 -1
15.85 13 -1.95 0 -1 0
15.75 13.25 -2.1 0 0 -1
15.75 13 -1.85 0 -1 0
15.65 13.35 -2.1 0 0 -1
15.65 13 -1.75 0 -1 0
15.55 13.45 -2.1 0 0 -1
15.55 13 -1.65 0 -1 0
15.45 13.55 -2.1 0 0 -1
15.45 13 -1.55 0 -1 0
15.35 13.65 -2.1 0 0 -1
15.35 13 -1.45 0 -1 0
15.25 13.75 -2.1 0 0 -1
15.25 13 -1.35 0 -1 0
15.15 13.85 -2.1 0 0 -1
15.15 13 -1.25 0 -1 0
15.05 13.95 -2.1 0 0 -1
15.05 13 -1.15 0 -1 0
14.95 14.05 -2.1 0 0 -1
14.95 13 -1.05 0 -1 0
14.85 14.15 -2.1 0 0 -1
14.85 13 -0.95 0 -1 0
14.75 14.25 -2.1 0 0 -1
14.75 13 -0.85 0 -1 0
14.65 14.35 -2.1 0 0 -1
14.65 13 -0.75 0 -1 0
14.55 14.45 -2.1 0 0 -1
14.55 13 -0.65 0 -1 0
14.45 14.55 -2.1 0 0 -1
14.45 13 -0.55 0 -1 0
14.35 14.65 -2.1 0 0 -1
14.35 13 -0.45 0 -1 0
14.25 14.8 -2.05 0 1 0
14.25 14.75 -2.1 0 0 -1
14.25 13 -0.35 0 -1 0
14.15 14.8 -1.95 0 1 0
14.15 13 -0.25 0 -1 0
14.15 13.05 -0.2 0 0 1
14.05 14.8 -1.85 0 1 0
13.95 14.8 -1.75 0 1 0
13.95 13.1 -0.15 0 -1 0
13.95 13.15 -0.1 0 0 1
13.85 14.8 -1.65 0 1 0
13.75 14.8 -1.55 0 1 0
13.75 13.2 -0.05 0 -1 0
13.75 13.25 4.47035e-08 0 0 1
13.65 14.8 -1.45 0 1 0
13.55 14.8 -1.35 0 1 0
13.55 13.3 0.05 0 -1 0
13.55 13.35 0.1 0 0 1
13.45 14.8 -1.25 0 1 0
13.35 14.8 -1.15 0 1 0
13.35 13.4 0.15 0 -1 0
13.35 13.45 0.2 0 0 1
13.25 14.8 -1.05 0 1 0
13.15 14.8 -0.95 0 1 0
13.15 13.5 0.25 0 -1 0
13.15 13.55 0.3 0 0 1
13.05 14.8 -0.85 0 1 0
13.05 13.65 0.3 0 0 1
12.95 14.8 -0.75 0 1 0
12.85 14.8 -0.65 0 1 0
12.85 13.7 0.35 0 -1 0
12.85 13.75 0.4 0 0 1
12.75 14.8 -0.55 0 1 0
12.65 14.8 -0.45 0 1 0
12.65 13.8 0.45 0 -1 0
12.65 13.85 0.5 0 0 1
12.55 14.8 -0.35 0 1 0
12.45 14.8 -0.25 0 1 0
12.45 13.9 0.55 0 -1 0
12.45 13.95 0.6 0 0 1
12.35 14.8 -0.15 0 1 0
12.25 14.8 -0.05 0 1 0
12.25 14 0.65 0 -1 0
12.25 14.05 0.7 0 0 1
12.15 14.8 0.05 0 1 0
12.15 14.15 0.7 0 0 1
12.05 14.8 0.15 0 1 0
11.9 14.75 0.25 -1 0 0
11.95 14.8 0.25 0 1 0
11.9 14.65 0.35 -1 0 0
11.9 14.55 0.45 -1 0 0
11.9 14.45 0.55 -1 0 0
11.9 14.35 0.65 -1 0 0
11.9 14.25 0.75 -1 0 0
11.95 14.2 0.75 0 -1 0
11.95 14.25 0.8 0 0 1
16.05 13 -2.05 0 -1 0
16.05 13.05 -2.1 0 0 -1
15.95 13.15 -2.1 0 0 -1
15.95 13 -1.95 0 -1 0
15.85 13.25 -2.1 0 0 -1
15.85 13 -1.85 0 -1 0
15.75 13.35 -2.1 0 0 -1
15.75 13 -1.75 0 -1 0
15.65 13.45 -2.1 0 0 -1
15.65 13 -1.65 0 -1 0
15.55 13.55 -2.1 0 0 -1
15.55 13 -1.55 0 -1 0
15.45 13.65 -2.1 0 0 -1
15.45 13 -1.45 0 -1 0
15.35 13.75 -2.1 0 0 -1
15.35 13 -1.35 0 -1 0
15.25 13.85 -2.1 0 0 -1
15.25 13 -1.25 0 -1 0
15.15 13.95 -2.1 0 0 -1
15.15 13 -1.15 0 -1 0
15.05 14.05 -2.1 0 0 -1
15.05 13 -1.05 0 -1 0
14.95 14.15 -2.1 0 0 -1
14.95 13 -0.95 0 -1 0
14.85 14.25 -2.1 0 0 -1
14.85 13 -0.85 0 -1 0
14.75 14.35 -2.1 0 0 -1
14.75 13 -0.75 0 -1 0
14.65 14.45 -2.1 0 0 -1
14.65 13 -0.65 0 -1 0
14.55 14.55 -2.1 0 0 -1
14.55 13 -0.55 0 -1 0
14.45 14.65 -2.1 0 0 -1
14.45 13 -0.45 0 -1 0
14.35 14.8 -2.05 0 1 0
14.35 14.75 -2.1 0 0 -1
14.35 13 -0.35 0 -1 0
14.25 14.8 -1.95 0 1 0
14.25 13 -0.25 0 -1 0
14.25 13.05 -0.2 0 0 1
14.15 14.8 -1.85 0 1 0
14.05 14.8 -1.75 0 1 0
14.05 13.1 -0.15 0 -1 0
14.05 13.15 -0.1 0 0 1
13.95 14.8 -1.65 0 1 0
13.85 14.8 -1.55 0 1 0
13.85 13.2 -0.05 0 -1 0
13.85 13.25 4.47035e-08 0 0 1
13.75 14.8 -1.45 0 1 0
13.65 14.8 -1.35 0 1 0
13.65 13.3 0.05 0 -1 0
13.65 13.35 0.1 0 0 1
13.55 14.8 -1.25 0 1 0
13.45 14.8 -1.15 0 1 0
13.45 13.4 0.15 0 -1 0
13.45 13.45 0.2 0 0 1
13.35 14.8 -1.05 0 1 0
13.25 14.8 -0.95 0 1 0
13.25 13.5 0.25 0 -1 0
13.25 13.55 0.3 0 0 1
13.15 14.8 -0.85 0 1 0
13.15 13.65 0.3 0 0 1
13.05 14.8 -0.75 0 1 0
12.95 14.8 -0.65 0 1 0
12.95 13.7 0.35 0 -1 0
12.95 13.75 0.4 0 0 1
12.85 14.8 -0.55 0 1 0
12.75 14.8 -0.45 0 1 0
12.75 13.8 0.45 0 -1 0
12.75 13.85 0.5 0 0 1
12.65 14.8 -0.35 0 1 0
12.55 14.8 -0.25 0 1 0
12.55 13.9 0.55 0 -1 0
12.55 13.95 0.6 0 0 1
12.45 14.8 -0.15 0 1 0
12.35 14.8 -0.05 0 1 0
12.35 14 0.65 0 -1 0
12.35 14.05 0.7 0 0 1
12.25 14.8 0.05 0 1 0
12.25 14.15 0.7 0 0 1
12.15 14.8 0.15 0 1 0
12.05 14.8 0.25 0 1 0
12.05 14.2 0.75 0 -1 0
12.05 14.25 0.8 0 0 1
11.9 14.75 0.35 -1 0 0
11.95 14.8 0.35 0 1 0
11.9 14.65 0.45 -1 0 0
11.9 14.55 0.55 -1 0 0
11.9 14.45 0.65 -1 0 0
11.9 14.35 0.75 -1 0 0
16.15 13 -2.05 0 -1 0
16.15 13.05 -2.1 0 0 -1
16.05 13.15 -2.1 0 0 -1
16.05 13 -1.95 0 -1 0
15.95 13.25 -2.1 0 0 -1
15.95 13 -1.85 0 -1 0
15.85 13.35 -2.1 0 0 -1
15.85 13 -1.75 0 -1 0
15.75 13.45 -2.1 0 0 -1
15.75 13 -1.65 0 -1 0
15.65 13.55 -2.1 0 0 -1
15.65 13 -1.55 0 -1 0
15.55 13.65 -2.1 0 0 -1
15.55 13 -1.45 0 -1 0
15.45 13.75 -2.1 0 0 -1
15.45 13 -1.35 0 -1 0
15.35 13.85 -2.1 0 0 -1
15.35 13 -1.25 0 -1 0
15.25 13.95 -2.1 0 0 -1
15.25 13 -1.15 0 -1 0
15.15 14.05 -2.1 0 0 -1
15.15 13 -1.05 0 -1 0
15.05 14.15 -2.1 0 0 -1
15.05 13 -0.95 0 -1 0
14.95 14.25 -2.1 0 0 -1
14.95 13 -0.85 0 -1 0
14.85 14.35 -2.1 0 0 -1
14.85 13 -0.75 0 -1 0
14.75 14.45 -2.1 0 0 -1
14.75 13 -0.65 0 -1 0
14.65 14.55 -2.1 0 0 -1
14.65 13 -0.55 0 -1 0
14.55 14.65 -2.1 0 0 -1
14.55 13 -0.45 0 -1 0
14.45 14.8 -2.05 0 1 0
14.45 14.75 -2.1 0 0 -1
14.45 13 -0.35 0 -1 0
14.35 14.8 -1.95 0 1 0
14.35 13 -0.25 0 -1 0
14.35 13.05 -0.2 0 0 1
14.25 14.8 -1.85 0 1 0
14.15 14.8 -1.75 0 1 0
14.15 13.1 -0.15 0 -1 0
14.15 13.15 -0.1 0 0 1
14.05 14.8 -1.65 0 1 0
13.95 14.8 -1.55 0 1 0
13.95 13.2 -0.05 0 -1 0
13.95 13.25 4.47035e-08 0 0 1
13.85 14.8 -1.45 0 1 0
13.75 14.8 -1.35 0 1 0
13.75 13.3 0.05 0 -1 0
13.75 13.35 0.1 0 0 1
13.65 14.8 -1.25 0 1 0
13.55 14.8 -1.15 0 1 0
13.55 13.4 0.15 0 -1 0
13.55 13.45 0.2 0 0 1
13.45 14.8 -1.05 0 1 0
13.35 14.8 -0.95 0 1 0
13.35 13.5 0.25 0 -1 0
13.35 13.55 0.3 0 0 1
13.25 14.8 -0.85 0 1 0
13.25 13.65 0.3 0 0 1
13.15 14.8 -0.75 0 1 0
13.05 14.8 -0.65 0 1 0
13.05 13.7 0.35 0 -1 0
13.05 13.75 0.4 0 0 1
12.95 14.8 -0.55 0 1 0
12.85 14.8 -0.45 0 1 0
12.85 13.8 0.45 0 -1 0
12.85 13.85 0.5 0 0 1
12.75 14.8 -0.35 0 1 0
12.65 14.8 -0.25 0 1 0
12.65 13.9 0.55 0 -1 0
12.65 13.95 0.6 0 0 1
12.55 14.8 -0.15 0 1 0
12.45 14.8 -0.05 0 1 0
12.45 14 0.65 0 -1 0
12.45 14.05 0.7 0 0 1
12.35 14.8 0.05 0 1 0
12.35 14.15 0.7 0 0 1
12.25 14.8 0.15 0 1 0
12.15 14.8 0.25 0 1 0
12.15 14.2 0.75 0 -1 0
12.15 14.25 0.8 0 0 1
12.05 14.8 0.35 0 1 0
11.9 14.75 0.45 -1 0 0
11.95 14.8 0.45 0 1 0
11.9 14.65 0.55 -1 0 0
11.9 14.55 0.65 -1 0 0
11.9 14.45 0.75 -1 0 0
11.9 14.35 0.85 -1 0 0
11.95 14.3 0.85 0 -1 0
11.95 14.35 0.9 0 0 1
16.25 13 -2.05 0 -1 0
16.25 13.05 -2.1 0 0 -1
16.15 13.15 -2.1 0 0 -1
16.15 13 -1.95 0 -1 0
16.05 13.25 -2.1 0 0 -1
16.05 13 -1.85 0 -1 0
15.95 13.35 -2.1 0 0 -1
15.95 13 -1.75 0 -1 0
15.85 13.45 -2.1 0 0 -1
15.85 13 -1.65 0 -1 0
15.75 13.55 -2.1 0 0 -1
15.75 13 -1.55 0 -1 0
15.65 13.65 -2.1 0 0 -1
15.65 13 -1.45 0 -1 0
15.55 13.75 -2.1 0 0 -1
15.55 13 -1.35 0 -1 0
15.45 13.85 -2.1 0 0 -1
15.45 13 -1.25 0 -1 0
15.35 13.95 -2.1 0 0 -1
15.35 13 -1.15 0 -1 0
15.25 14.05 -2.1 0 0 -1
15.25 13 -1.05 0 -1 0
15.15 14.15 -2.1 0 0 -1
15.15 13 -0.95 0 -1 0
15.05 14.25 -2.1 0 0 -1
15.05 13 -0.85 0 -1 0
14.95 14.35 -2.1 0 0 -1
14.95 13 -0.75 0 -1 0
14.85 14.45 -2.1 0 0 -1
14.85 13 -0.65 0 -1 0
14.75 14.55 -2.1 0 0 -1
14.75 13 -0.55 0 -1 0
14.65 14.65 -2.1 0 0 -1
14.65 13 -0.45 0 -1 0
14.55 14.8 -2.05 0 1 0
14.55 14.75 -2.1 0 0 -1
14.55 13 -0.35 0 -1 0
14.45 14.8 -1.95 0 1 0
14.45 13 -0.25 0 -1 0
14.45 13.05 -0.2 0 0 1
14.35 14.8 -1.85 0 1 0
14.25 14.8 -1.75 0 1 0
14.25 13.1 -0.15 0 -1 0
14.25 13.15 -0.1 0 0 1
14.15 14.8 -1.65 0 1 0
14.05 14.8 -1.55 0 1 0
14.05 13.2 -0.05 0 -1 0
14.05 13.25 4.47035e-08 0 0 1
13.95 14.8 -1.45 0 1 0
13.85 14.8 -1.35 0 1 0
13.85 13.3 0.05 0 -1 0
13.85 13.35 0.1 0 0 1
13.75 14.8 -1.25 0 1 0
13.65 14.8 -1.15 0 1 0
13.65 13.4 0.15 0 -1 0
13.65 13.45 0.2 0 0 1
13.55 14.8 -1.05 0 1 0
13.45 14.8 -0.95 0 1 0
13.45 13.5 0.25 0 -1 0
13.45 13.55 0.3 0 0 1
13.35 14.8 -0.85 0 1 0
13.35 13.65 0.3 0 0 1
13.25 14.8 -0.75 0 1 0
13.15 14.8 -0.65 0 1 0
13.15 13.7 0.35 0 -1 0
13.15 13.75 0.4 0 0 1
13.05 14.8 -0.55 0 1 0
12.95 14.8 -0.45 0 1 0
12.95 13.8 0.45 0 -1 0
12.95 13.85 0.5 0 0 1
12.85 14.8 -0.35 0 1 0
12.75 14.8 -0.25 0 1 0
12.75 13.9 0.55 0 -1 0
12.75 13.95 0.6 0 0 1
12.65 14.8 -0.15 0 1 0
12.55 14.8 -0.05 0 1 0
12.55 14 0.65 0 -1 0
12.55 14.05 0.7 0 0 1
12.45 14.8 0.05 0 1 0
12.45 14.15 0.7 0 0 1
12.35 14.8 0.15 0 1 0
12.25 14.8 0.25 0 1 0
12.25 14.2 0.75 0 -1 0
12.25 14.25 0.8 0 0 1
12.15 14.8 0.35 0 1 0
12.05 14.8 0.45 0 1 0
12.05 14.3 0.85 0 -1 0
12.05 14.35 0.9 0 0 1
11.9 14.75 0.55 -1 0 0
11.95 14.8 0.55 0 1 0
11.9 14.65 0.65 -1 0 0
11.9 14.55 0.75 -1 0 0
11.9 14.45 0.85 -1 0 0
16.35 13 -2.05 0 -1 0
16.35 13.05 -2.1 0 0 -1
16.25 13.15 -2.1 0 0 -1
16.25 13 -1.95 0 -1 0
16.15 13.25 -2.1 0 0 -1
16.15 13 -1.85 0 -1 0
16.05 13.35 -2.1 0 0 -1
16.05 13 -1.75 0 -1 0
15.95 13.45 -2.1 0 0 -1
15.95 13 -1.65 0 -1 0
15.85 13.55 -2.1 0 0 -1
15.85 13 -1.55 0 -1 0
15.75 13.65 -2.1 0 0 -1
15.75 13 -1.45 0 -1 0
15.65 13.75 -2.1 0 0 -1
15.65 13 -1.35 0 -1 0
15.55 13.85 -2.1 0 0 -1
15.55 13 -1.25 0 -1 0
15.45 13.95 -2.1 0 0 -1
15.45 13 -1.15 0 -1 0
15.35 14.05 -2.1 0 0 -1
15.35 13 -1.05 0 -1 0
15.25 14.15 -2.1 0 0 -1
15.25 13 -0.95 0 -1 0
15.15 14.25 -2.1 0 0 -1
15.15 13 -0.85 0 -1 0
15.05 14.35 -2.1 0 0 -1
15.05 13 -0.75 0 -1 0
14.95 14.45 -2.1 0 0 -1
14.95 13 -0.65 0 -1 0
14.85 14.55 -2.1 0 0 -1
14.85 13 -0.55 0 -1 0
14.75 14.65 -2.1 0 0 -1
14.75 13 -0.45 0 -1 0
14.65 14.8 -2.05 0 1 0
14.65 14.75 -2.1 0 0 -1
14.65 13 -0.35 0 -1 0
14.55 14.8 -1.95 0 1 0
14.55 13 -0.25 0 -1 0
14.55 13.05 -0.2 0 0 1
14.45 14.8 -1.85 0 1 0
14.35 14.8 -1.75 0 1 0
14.35 13.1 -0.15 0 -1 0
14.35 13.15 -0.1 0 0 1
14.25 14.8 -1.65 0 1 0
14.15 14.8 -1.55 0 1 0
14.15 13.2 -0.05 0 -1 0
14.15 13.25 4.47035e-08 0 0 1
14.05 14.8 -1.45 0 1 0
13.95 14.8 -1.35 0 1 0
13.95 13.3 0.05 0 -1 0
13.95 13.35 0.1 0 0 1
13.85 14.8 -1.25 0 1 0
13.75 14.8 -1.15 0 1 0
13.75 13.4 0.15 0 -1 0
13.75 13.45 0.2 0 0 1
13.65 14.8 -1.05 0 1 0
13.55 14.8 -0.95 0 1 0
13.55 13.5 0.25 0 -1 0
13.55 13.55 0.3 0 0 1
13.45 14.8 -0.85 0 1 0
13.45 13.65 0.3 0 0 1
13.35 14.8 -0.75 0 1 0
13.25 14.8 -0.65 0 1 0
13.25 13.7 0.35 0 -1 0
13.25 13.75 0.4 0 0 1
13.15 14.8 -0.55 0 1 0
13.05 14.8 -0.45 0 1 0
13.05 13.8 0.45 0 -1 0
13.05 13.85 0.5 0 0 1
12.95 14.8 -0.35 0 1 0
12.85 14.8 -0.25 0 1 0
12.85 13.9 0.55 0 -1 0
12.85 13.95 0.6 0 0 1
12.75 14.8 -0.15 0 1 0
12.65 14.8 -0.05 0 1 0
12.65 14 0.65 0 -1 0
12.65 14.05 0.7 0 0 1
12.55 14.8 0.05 0 1 0
12.55 14.15 0.7 0 0 1
12.45 14.8 0.15 0 1 0
12.35 14.8 0.25 0 1 0
12.35 14.2 0.75 0 -1 0
12.35 14.25 0.8 0 0 1
12.25 14.8 0.35 0 1 0
12.15 14.8 0.45 0 1 0
12.15 14.3 0.85 0 -1 0
12.15 14.35 0.9 0 0 1
12.05 14.8 0.55 0 1 0
11.9 14.75 0.65 -1 0 0
11.95 14.8 0.65 0 1 0
11.9 14.65 0.75 -1 0 0
11.9 14.55 0.85 -1 0 0
11.9 14.45 0.95 -1 0 0
11.95 14.4 0.95 0 -1 0
11.95 14.45 1 0 0 1
16.45 13 -2.05 0 -1 0
16.45 13.05 -2.1 0 0 -1
16.35 13.15 -2.1 0 0 -1
16.35 13 -1.95 0 -1 0
16.25 13.25 -2.1 0 0 -1
16.25 13 -1.85 0 -1 0
16.15 13.35 -2.1 0 0 -1
16.15 13 -1.75 0 -1 0
16.05 13.45 -2.1 0 0 -1
16.05 13 -1.65 0 -1 0
15.95 13.55 -2.1 0 0 -1
15.95 13 -1.55 0 -1 0
15.85 13.65 -2.1 0 0 -1
15.85 13 -1.45 0 -1 0
15.75 13.75 -2.1 0 0 -1
15.75 13 -1.35 0 -1 0
15.65 13.85 -2.1 0 0 -1
15.65 13 -1.25 0 -1 0
15.55 13.95 -2.1 0 0 -1
15.55 13 -1.15 0 -1 0
15.45 14.05 -2.1 0 0 -1
15.45 13 -1.05 0 -1 0
15.35 14.15 -2.1 0 0 -1
15.35 13 -0.95 0 -1 0
15.25 14.25 -2.1 0 0 -1
15.25 13 -0.85 0 -1 0
15.15 14.35 -2.1 0 0 -1
15.15 13 -0.75 0 -1 0
15.05 14.45 -2.1 0 0 -1
15.05 13 -0.65 0 -1 0
14.95 14.55 -2.1 0 0 -1
14.95 13 -0.55 0 -1 0
14.85 14.65 -2.1 0 0 -1
14.85 13 -0.45 0 -1 0
14.75 14.8 -2.05 0 1 0
14.75 14.75 -2.1 0 0 -1
14.75 13 -0.35 0 -1 0
14.65 14.8 -1.95 0 1 0
14.65 13 -0.25 0 -1 0
14.65 13.05 -0.2 0 0 1
14.55 14.8 -1.85 0 1 0
14.45 14.8 -1.75 0 1 0
14.45 13.1 -0.15 0 -1 0
14.45 13.15 -0.1 0 0 1
14.35 14.8 -1.65 0 1 0
14.25 14.8 -1.55 0 1 0
14.25 13.2 -0.05 0 -1 0
14.25 13.25 4.47035e-08 0 0 1
14.15 14.8 -1.45 0 1 0
14.05 14.8 -1.35 0 1 0
14.05 13.3 0.05 0 -1 0
14.05 13.35 0.1 0 0 1
13.95 14.8 -1.25 0 1 0
13.85 14.8 -1.15 0 1 0
13.85 13.4 0.15 0 -1 0
13.85 13.45 0.2 0 0 1
13.75 14.8 -1.05 0 1 0
13.65 14.8 -0.95 0 1 0
13.65 13.5 0.25 0 -1 0
13.65 13.55 0.3 0 0 1
13.55 14.8 -0.85 0 1 0
13.55 13.65 0.3 0 0 1
13.45 14.8 -0.75 0 1 0
13.35 14.8 -0.65 0 1 0
13.35 13.7 0.35 0 -1 0
13.35 13.75 0.4 0 0 1
13.25 14.8 -0.55 0 1 0
13.15 14.8 -0.45 0 1 0
13.15 13.8 0.45 0 -1 0
13.15 13.85 0.5 0 0 1
13.05 14.8 -0.35 0 1 0
12.95 14.8 -0.25 0 1 0
12.95 13.9 0.55 0 -1 0
12.95 13.95 0.6 0 0 1
12.85 14.8 -0.15 0 1 0
12.75 14.8 -0.05 0 1 0
12.75 14 0.65 0 -1 0
12.75 14.05 0.7 0 0 1
12.65 14.8 0.05 0 1 0
12.65 14.15 0.7 0 0 1
12.55 14.8 0.15 0 1 0
12.45 14.8 0.25 0 1 0
12.45 14.2 0.75 0 -1 0
12.45 14.25 0.8 0 0 1
12.35 14.8 0.35 0 1 0
12.25 14.8 0.45 0 1 0
12.25 14.3 0.85 0 -1 0
12.25 14.35 0.9 0 0 1
12.15 14.8 0.55 0 1 0
12.05 14.8 0.65 0 1 0
12.05 14.4 0.95 0 -1 0
12.05 14.45 1 0 0 1
11.9 14.75 0.75 -1 0 0
11.95 14.8 0.75 0 1 0
11.9 14.65 0.85 -1 0 0
11.9 14.55 0.95 -1 0 0
16.55 13 -2.05 0 -1 0
16.55 13.05 -2.1 0 0 -1
16.45 13.15 -2.1 0 0 -1
16.45 13 -1.95 0 -1 0
16.35 13.25 -2.1 0 0 -1
16.35 13 -1.85 0 -1 0
16.25 13.35 -2.1 0 0 -1
16.25 13 -1.75 0 -1 0
16.15 13.45 -2.1 0 0 -1
16.15 13 -1.65 0 -1 0
16.05 13.55 -2.1 0 0 -1
16.05 13 -1.55 0 -1 0
15.95 13.65 -2.1 0 0 -1
15.95 13 -1.45 0 -1 0
15.85 13.75 -2.1 0 0 -1
15.85 13 -1.35 0 -1 0
15.75 13.85 -2.1 0 0 -1
15.75 13 -1.25 0 -1 0
15.65 13.95 -2.1 0 0 -1
15.65 13 -1.15 0 -1 0
15.55 14.05 -2.1 0 0 -1
15.55 13 -1.05 0 -1 0
15.45 14.15 -2.1 0 0 -1
15.45 13 -0.95 0 -1 0
15.35 14.25 -2.1 0 0 -1
15.35 13 -0.85 0 -1 0
15.25 14.35 -2.1 0 0 -1
15.25 13 -0.75 0 -1 0
15.15 14.45 -2.1 0 0 -1
15.15 13 -0.65 0 -1 0
15.05 14.55 -2.1 0 0 -1
15.05 13 -0.55 0 -1 0
14.95 14.65 -2.1 0 0 -1
14.95 13 -0.45 0 -1 0
14.85 14.8 -2.05 0 1 0
14.85 14.75 -2.1 0 0 -1
14.85 13 -0.35 0 -1 0
14.75 14.8 -1.95 0 1 0
14.75 13 -0.25 0 -1 0
14.75 13.05 -0.2 0 0 1
14.65 14.8 -1.85 0 1 0
14.55 14.8 -1.75 0 1 0
14.55 13.1 -0.15 0 -1 0
14.55 13.15 -0.1 0 0 1
14.45 14.8 -1.65 0 1 0
14.35 14.8 -1.55 0 1 0
14.35 13.2 -0.05 0 -1 0
14.35 13.25 4.47035e-08 0 0 1
14.25 14.8 -1.45 0 1 0
14.15 14.8 -1.35 0 1 0
14.15 13.3 0.05 0 -1 0
14.15 13.35 0.1 0 0 1
14.05 14.8 -1.25 0 1 0
13.95 14.8 -1.15 0 1 0
13.95 13.4 0.15 0 -1 0
13.95 13.45 0.2 0 0 1
13.85 14.8 -1.05 0 1 0
13.75 14.8 -0.95 0 1 0
13.75 13.5 0.25 0 -1 0
13.75 13.55 0.3 0 0 1
13.65 14.8 -0.85 0 1 0
13.65 13.65 0.3 0 0 1
13.55 14.8 -0.75 0 1 0
13.45 14.8 -0.65 0 1 0
13.45 13.7 0.35 0 -1 0
13.45 13.75 0.4 0 0 1
13.35 14.8 -0.55 0 1 0
13.25 14.8 -0.45 0 1 0
13.25 13.8 0.45 0 -1 0
13.25 13.85 0.5 0 0 1
13.15 14.8 -0.35 0 1 0
13.05 14.8 -0.25 0 1 0
13.05 13.9 0.55 0 -1 0
13.05 13.95 0.6 0 0 1
12.95 14.8 -0.15 0 1 0
12.85 14.8 -0.05 0 1 0
12.85 14 0.65 0 -1 0
12.85 14.05 0.7 0 0 1
12.75 14.8 0.05 0 1 0
12.75 14.15 0.7 0 0 1
12.65 14.8 0.15 0 1 0
12.55 14.8 0.25 0 1 0
12.55 14.2 0.75 0 -1 0
12.55 14.25 0.8 0 0 1
12.45 14.8 0.35 0 1 0
12.35 14.8 0.45 0 1 0
12.35 14.3 0.85 0 -1 0
12.35 14.35 0.9 0 0 1
12.25 14.8 0.55 0 1 0
12.15 14.8 0.65 0 1 0
12.15 14.4 0.95 0 -1 0
12.15 14.45 1 0 0 1
12.05 14.8 0.75 0 1 0
11.9 14.75 0.85 -1 0 0
11.95 14.8 0.85 0 1 0
11.9 14.65 0.95 -1 0 0
11.9 14.55 1.05 -1 0 0
11.95 14.5 1.05 0 -1 0
11.95 14.55 1.1 0 0 1
16.65 13 -2.05 0 -1 0
16.65 13.05 -2.1 0 0 -1
16.55 13.15 -2.1 0 0 -1
16.55 13 -1.95 0 -1 0
16.45 13.25 -2.1 0 0 -1
16.45 13 -1.85 0 -1 0
16.35 13.35 -2.1 0 0 -1
16.35 13 -1.75 0 -1 0
16.25 13.45 -2.1 0 0 -1
16.25 13 -1.65 0 -1 0
16.15 13.55 -2.1 0 0 -1
16.15 13 -1.55 0 -1 0
16.05 13.65 -2.1 0 0 -1
16.05 13 -1.45 0 -1 0
15.95 13.75 -2.1 0 0 -1
15.95 13 -1.35 0 -1 0
15.85 13.85 -2.1 0 0 -1
15.85 13 -1.25 0 -1 0
15.75 13.95 -2.1 0 0 -1
15.75 13 -1.15 0 -1 0
15.65 14.05 -2.1 0 0 -1
15.65 13 -1.05 0 -1 0
15.55 14.15 -2.1 0 0 -1
15.55 13 -0.95 0 -1 0
15.45 14.25 -2.1 0 0 -1
15.45 13 -0.85 0 -1 0
15.35 14.35 -2.1 0 0 -1
15.35 13 -0.75 0 -1 0
15.25 14.45 -2.1 0 0 -1
15.25 13 -0.65 0 -1 0
15.15 14.55 -2.1 0 0 -1
15.15 13 -0.55 0 -1 0
15.05 14.65 -2.1 0 0 -1
15.05 13 -0.45 0 -1 0
14.95 14.8 -2.05 0 1 0
14.95 14.75 -2.1 0 0 -1
14.95 13 -0.35 0 -1 0
14.85 14.8 -1.95 0 1 0
14.85 13 -0.25 0 -1 0
14.85 13.05 -0.2 0 0 1
14.75 14.8 -1.85 0 1 0
14.65 14.8 -1.75 0 1 0
14.65 13.1 -0.15 0 -1 0
14.65 13.15 -0.1 0 0 1
14.55 14.8 -1.65 0 1 0
14.45 14.8 -1.55 0 1 0
14.45 13.2 -0.05 0 -1 0
14.45 13.25 4.47035e-08 0 0 1
14.35 14.8 -1.45 0 1 0
14.25 14.8 -1.35 0 1 0
14.25 13.3 0.05 0 -1 0
14.25 13.35 0.1 0 0 1
14.15 14.8 -1.25 0 1 0
14.05 14.8 -1.15 0 1 0
14.05 13.4 0.15 0 -1 0
14.05 13.45 0.2 0 0 1
13.95 14.8 -1.05 0 1 0
13.85 14.8 -0.95 0 1 0
13.85 13.5 0.25 0 -1 0
13.85 13.55 0.3 0 0 1
13.75 14.8 -0.85 0 1 0
13.75 13.65 0.3 0 0 1
13.65 14.8 -0.75 0 1 0
13.55 14.8 -0.65 0 1 0
13.55 13.7 0.35 0 -1 0
13.55 13.75 0.4 0 0 1
13.45 14.8 -0.55 0 1 0
13.35 14.8 -0.45 0 1 0
13.35 13.8 0.45 0 -1 0
13.35 13.85 0.5 0 0 1
13.25 14.8 -0.35 0 1 0
13.15 14.8 -0.25 0 1 0
13.15 13.9 0.55 0 -1 0
13.15 13.95 0.6 0 0 1
13.05 14.8 -0.15 0 1 0
12.95 14.8 -0.05 0 1 0
12.95 14 0.65 0 -1 0
12.95 14.05 0.7 0 0 1
12.85 14.8 0.05 0 1 0
12.85 14.15 0.7 0 0 1
12.75 14.8 0.15 0 1 0
12.65 14.8 0.25 0 1 0
12.65 14.2 0.75 0 -1 0
12.65 14.25 0.8 0 0 1
12.55 14.8 0.35 0 1 0
12.45 14.8 0.45 0 1 0
12.45 14.3 0.85 0 -1 0
12.45 14.35 0.9 0 0 1
12.35 14.8 0.55 0 1 0
12.25 14.8 0.65 0 1 0
12.25 14.4 0.95 0 -1 0
12.25 14.45 1 0 0 1
12.15 14.8 0.75 0 1 0
12.05 14.8 0.85 0 1 0
12.05 14.5 1.05 0 -1 0
12.05 14.55 1.1 0 0 1
11.9 14.75 0.95 -1 0 0
11.95 14.8 0.95 0 1 0
11.9 14.65 1.05 -1 0 0
16.8 13.05 -2.05 1 0 0
16.75 13 -2.05 0 -1 0
16.75 13.05 -2.1 0 0 -1
16.65 13.15 -2.1 0 0 -1
16.65 13 -1.95 0 -1 0
16.55 13.25 -2.1 0 0 -1
16.55 13 -1.85 0 -1 0
16.45 13.35 -2.1 0 0 -1
16.45 13 -1.75 0 -1 0
16.35 13.45 -2.1 0 0 -1
16.35 13 -1.65 0 -1 0
16.25 13.55 -2.1 0 0 -1
16.25 13 -1.55 0 -1 0
16.15 13.65 -2.1 0 0 -1
16.15 13 -1.45 0 -1 0
16.05 13.75 -2.1 0 0 -1
16.05 13 -1.35 0 -1 0
15.95 13.85 -2.1 0 0 -1
15.95 13 -1.25 0 -1 0
15.85 13.95 -2.1 0 0 -1
15.85 13 -1.15 0 -1 0
15.75 14.05 -2.1 0 0 -1
15.75 13 -1.05 0 -1 0
15.65 14.15 -2.1 0 0 -1
15.65 13 -0.95 0 -1 0
15.55 14.25 -2.1 0 0 -1
15.55 13 -0.85 0 -1 0
15.45 14.35 -2.1 0 0 -1
15.45 13 -0.75 0 -1 0
15.35 14.45 -2.1 0 0 -1
15.35 13 -0.65 0 -1 0
15.25 14.55 -2.1 0 0 -1
15.25 13 -0.55 0 -1 0
15.15 14.65 -2.1 0 0 -1
15.15 13 -0.45 0 -1 0
15.05 14.8 -2.05 0 1 0
15.05 14.75 -2.1 0 0 -1
15.05 13 -0.35 0 -1 0
14.95 14.8 -1.95 0 1 0
14.95 13 -0.25 0 -1 0
14.95 13.05 -0.2 0 0 1
14.85 14.8 -1.85 0 1 0
14.75 14.8 -1.75 0 1 0
14.75 13.1 -0.15 0 -1 0
14.75 13.15 -0.1 0 0 1
14.65 14.8 -1.65 0 1 0
14.55 14.8 -1.55 0 1 0
14.55 13.2 -0.05 0 -1 0
14.55 13.25 4.47035e-08 0 0 1
14.45 14.8 -1.45 0 1 0
14.35 14.8 -1.35 0 1 0
14.35 13.3 0.05 0 -1 0
14.35 13.35 0.1 0 0 1
14.25 14.8 -1.25 0 1 0
14.15 14.8 -1.15 0 1 0
14.15 13.4 0.15 0 -1 0
14.15 13.45 0.2 0 0 1
14.05 14.8 -1.05 0 1 0
13.95 14.8 -0.95 0 1 0
13.95 13.5 0.25 0 -1 0
13.95 13.55 0.3 0 0 1
13.85 14.8 -0.85 0 1 0
13.85 13.65 0.3 0 0 1
13.75 14.8 -0.75 0 1 0
13.65 14.8 -0.65 0 1 0
13.65 13.7 0.35 0 -1 0
13.65 13.75 0.4 0 0 1
13.55 14.8 -0.55 0 1 0
13.45 14.8 -0.45 0 1 0
13.45 13.8 0.45 0 -1 0
13.45 13.85 0.5 0 0 1
13.35 14.8 -0.35 0 1 0
13.25 14.8 -0.25 0 1 0
13.25 13.9 0.55 0 -1 0
13.25 13.95 0.6 0 0 1
13.15 14.8 -0.15 0 1 0
13.05 14.8 -0.05 0 1 0
13.05 14 0.65 0 -1 0
13.05 14.05 0.7 0 0 1
12.95 14.8 0.05 0 1 0
12.95 14.15 0.7 0 0 1
12.85 14.8 0.15 0 1 0
12.75 14.8 0.25 0 1 0
12.75 14.2 0.75 0 -1 0
12.75 14.25 0.8 0 0 1
12.65 14.8 0.35 0 1 0
12.55 14.8 0.45 0 1 0
12.55 14.3 0.85 0 -1 0
12.55 14.35 0.9 0 0 1
12.45 14.8 0.55 0 1 0
12.35 14.8 0.65 0 1 0
12.35 14.4 0.95 0 -1 0
12.35 14.45 1 0 0 1
12.25 14.8 0.75 0 1 0
12.15 14.8 0.85 0 1 0
12.15 14.5 1.05 0 -1 0
12.15 14.55 1.1 0 0 1
12.05 14.8 0.95 0 1 0
11.9 14.75 1.05 -1 0 0
11.95 14.8 1.05 0 1 0
11.9 14.65 1.15 -1 0 0
11.95 14.6 1.15 0 -1 0
11.95 14.65 1.2 0 0 1
16.8 13.15 -2.05 1 0 0
16.75 13.15 -2.1 0 0 -1
16.8 13.05 -1.95 1 0 0
16.75 13 -1.95 0 -1 0
16.65 13.25 -2.1 0 0 -1
16.65 13 -1.85 0 -1 0
16.55 13.35 -2.1 0 0 -1
16.55 13 -1.75 0 -1 0
16.45 13.45 -2.1 0 0 -1
16.45 13 -1.65 0 -1 0
16.35 13.55 -2.1 0 0 -1
16.35 13 -1.55 0 -1 0
16.25 13.65 -2.1 0 0 -1
16.25 13 -1.45 0 -1 0
16.15 13.75 -2.1 0 0 -1
16.15 13 -1.35 0 -1 0
16.05 13.85 -2.1 0 0 -1
16.05 13 -1.25 0 -1 0
15.95 13.95 -2.1 0 0 -1
15.95 13 -1.15 0 -1 0
15.85 14.05 -2.1 0 0 -1
15.85 13 -1.05 0 -1 0
15.75 14.15 -2.1 0 0 -1
15.75 13 -0.95 0 -1 0
15.65 14.25 -2.1 0 0 -1
15.65 13 -0.85 0 -1 0
15.55 14.35 -2.1 0 0 -1
15.55 13 -0.75 0 -1 0
15.45 14.45 -2.1 0 0 -1
15.45 13 -0.65 0 -1 0
15.35 14.55 -2.1 0 0 -1
15.35 13 -0.55 0 -1 0
15.25 14.65 -2.1 0 0 -1
15.25 13 -0.45 0 -1 0
15.15 14.8 -2.05 0 1 0
15.15 14.75 -2.1 0 0 -1
15.15 13 -0.35 0 -1 0
15.05 14.8 -1.95 0 1 0
15.05 13 -0.25 0 -1 0
15.05 13.05 -0.2 0 0 1
14.95 14.8 -1.85 0 1 0
14.85 14.8 -1.75 0 1 0
14.85 13.1 -0.15 0 -1 0
14.85 13.15 -0.1 0 0 1
14.75 14.8 -1.65 0 1 0
14.65 14.8 -1.55 0 1 0
14.65 13.2 -0.05 0 -1 0
14.65 13.25 4.47035e-08 0 0 1
14.55 14.8 -1.45 0 1 0
14.45 14.8 -1.35 0 1 0
14.45 13.3 0.05 0 -1 0
14.45 13.35 0.1 0 0 1
14.35 14.8 -1.25 0 1 0
14.25 14.8 -1.15 0 1 0
14.25 13.4 0.15 0 -1 0
14.25 13.45 0.2 0 0 1
14.15 14.8 -1.05 0 1 0
14.05 14.8 -0.95 0 1 0
14.05 13.5 0.25 0 -1 0
14.05 13.55 0.3 0 0 1
13.95 14.8 -0.85 0 1 0
13.95 13.65 0.3 0 0 1
13.85 14.8 -0.75 0 1 0
13.75 14.8 -0.65 0 1 0
13.75 13.7 0.35 0 -1 0
13.75 13.75 0.4 0 0 1
13.65 14.8 -0.55 0 1 0
13.55 14.8 -0.45 0 1 0
13.55 13.8 0.45 0 -1 0
13.55 13.85 0.5 0 0 1
13.45 14.8 -0.35 0 1 0
13.35 14.8 -0.25 0 1 0
13.35 13.9 0.55 0 -1 0
13.35 13.95 0.6 0 0 1
13.25 14.8 -0.15 0 1 0
13.15 14.8 -0.05 0 1 0
13.15 14 0.65 0 -1 0
13.15 14.05 0.7 0 0 1
13.05 14.8 0.05 0 1 0
13.05 14.15 0.7 0 0 1
12.95 14.8 0.15 0 1 0
12.85 14.8 0.25 0 1 0
12.85 14.2 0.75 0 -1 0
12.85 14.25 0.8 0 0 1
12.75 14.8 0.35 0 1 0
12.65 14.8 0.45 0 1 0
12.65 14.3 0.85 0 -1 0
12.65 14.35 0.9 0 0 1
12.55 14.8 0.55 0 1 0
12.45 14.8 0.65 0 1 0
12.45 14.4 0.95 0 -1 0
12.45 14.45 1 0 0 1
12.35 14.8 0.75 0 1 0
12.25 14.8 0.85 0 1 0
12.25 14.5 1.05 0 -1 0
12.25 14.55 1.1 0 0 1
12.15 14.8 0.95 0 1 0
12.05 14.8 1.05 0 1 0
12.05 14.6 1.15 0 -1 0
12.05 14.65 1.2 0 0 1
11.9 14.75 1.15 -1 0 0
11.95 14.8 1.15 0 1 0
11.95 14.75 1.2 0 0 1
16.8 13.25 -2.05 1 0 0
16.75 13.25 -2.1 0 0 -1
16.8 13.15 -1.95 1 0 0
16.8 13.05 -1.85 1 0 0
16.75 13 -1.85 0 -1 0
16.65 13.35 -2.1 0 0 -1
16.65 13 -1.75 0 -1 0
16.55 13.45 -2.1 0 0 -1
16.55 13 -1.65 0 -1 0
16.45 13.55 -2.1 0 0 -1
16.45 13 -1.55 0 -1 0
16.35 13.65 -2.1 0 0 -1
16.35 13 -1.45 0 -1 0
16.25 13.75 -2.1 0 0 -1
16.25 13 -1.35 0 -1 0
16.15 13.85 -2.1 0 0 -1
16.15 13 -1.25 0 -1 0
16.05 13.95 -2.1 0 0 -1
16.05 13 -1.15 0 -1 0
15.95 14.05 -2.1 0 0 -1
15.95 13 -1.05 0 -1 0
15.85 14.15 -2.1 0 0 -1
15.85 13 -0.95 0 -1 0
15.75 14.25 -2.1 0 0 -1
15.75 13 -0.85 0 -1 0
15.65 14.35 -2.1 0 0 -1
15.65 13 -0.75 0 -1 0
15.55 14.45 -2.1 0 0 -1
15.55 13 -0.65 0 -1 0
15.45 14.55 -2.1 0 0 -1
15.45 13 -0.55 0 -1 0
15.35 14.65 -2.1 0 0 -1
15.35 13 -0.45 0 -1 0
15.25 14.8 -2.05 0 1 0
15.25 14.75 -2.1 0 0 -1
15.25 13 -0.35 0 -1 0
15.15 14.8 -1.95 0 1 0
15.15 13 -0.25 0 -1 0
15.15 13.05 -0.2 0 0 1
15.05 14.8 -1.85 0 1 0
14.95 14.8 -1.75 0 1 0
14.95 13.1 -0.15 0 -1 0
14.95 13.15 -0.1 0 0 1
14.85 14.8 -1.65 0 1 0
14.75 14.8 -1.55 0 1 0
14.75 13.2 -0.05 0 -1 0
14.75 13.25 4.47035e-08 0 0 1
14.65 14.8 -1.45 0 1 0
14.55 14.8 -1.35 0 1 0
14.55 13.3 0.05 0 -1 0
14.55 13.35 0.1 0 0 1
14.45 14.8 -1.25 0 1 0
14.35 14.8 -1.15 0 1 0
14.35 13.4 0.15 0 -1 0
14.35 13.45 0.2 0 0 1
14.25 14.8 -1.05 0 1 0
14.15 14.8 -0.95 0 1 0
14.15 13.5 0.25 0 -1 0
14.15 13.55 0.3 0 0 1
14.05 14.8 -0.85 0 1 0
14.05 13.65 0.3 0 0 1
13.95 14.8 -0.75 0 1 0
13.85 14.8 -0.65 0 1 0
13.85 13.7 0.35 0 -1 0
13.85 13.75 0.4 0 0 1
13.75 14.8 -0.55 0 1 0
13.65 14.8 -0.45 0 1 0
13.65 13.8 0.45 0 -1 0
13.65 13.85 0.5 0 0 1
13.55 14.8 -0.35 0 1 0
13.45 14.8 -0.25 0 1 0
13.45 13.9 0.55 0 -1 0
13.45 13.95 0.6 0 0 1
13.35 14.8 -0.15 0 1 0
13.25 14.8 -0.05 0 1 0
13.25 14 0.65 0 -1 0
13.25 14.05 0.7 0 0 1
13.15 14.8 0.05 0 1 0
13.15 14.15 0.7 0 0 1
13.05 14.8 0.15 0 1 0
12.95 14.8 0.25 0 1 0
12.95 14.2 0.75 0 -1 0
12.95 14.25 0.8 0 0 1
12.85 14.8 0.35 0 1 0
12.75 14.8 0.45 0 1 0
12.75 14.3 0.85 0 -1 0
12.75 14.35 0.9 0 0 1
12.65 14.8 0.55 0 1 0
12.55 14.8 0.65 0 1 0
12.55 14.4 0.95 0 -1 0
12.55 14.45 1 0 0 1
12.45 14.8 0.75 0 1 0
12.35 14.8 0.85 0 1 0
12.35 14.5 1.05 0 -1 0
12.35 14.55 1.1 0 0 1
12.25 14.8 0.95 0 1 0
12.15 14.8 1.05 0 1 0
12.15 14.6 1.15 0 -1 0
12.15 14.65 1.2 0 0 1
12.05 14.8 1.15 0 1 0
12.05 14.75 1.2 0 0 1
16.8 13.35 -2.05 1 0 0
16.75 13.35 -2.1 0 0 -1
16.8 13.25 -1.95 1 0 0
16.8 13.15 -1.85 1 0 0
16.8 13.05 -1.75 1 0 0
16.75 13 -1.75 0 -1 0
16.65 13.45 -2.1 0 0 -1
16.65 13 -1.65 0 -1 0
16.55 13.55 -2.1 0 0 -1
16.55 13 -1.55 0 -1 0
16.45 13.65 -2.1 0 0 -1
16.45 13 -1.45 0 -1 0
16.35 13.75 -2.1 0 0 -1
16.35 13 -1.35 0 -1 0
16.25 13.85 -2.1 0 0 -1
16.25 13 -1.25 0 -1 0
16.15 13.95 -2.1 0 0 -1
16.15 13 -1.15 0 -1 0
16.05 14.05 -2.1 0 0 -1
16.05 13 -1.05 0 -1 0
15.95 14.15 -2.1 0 0 -1
15.95 13 -0.95 0 -1 0
15.85 14.25 -2.1 0 0 -1
15.85 13 -0.85 0 -1 0
15.75 14.35 -2.1 0 0 -1
15.75 13 -0.75 0 -1 0
15.65 14.45 -2.1 0 0 -1
15.65 13 -0.65 0 -1 0
15.55 14.55 -2.1 0 0 -1
15.55 13 -0.55 0 -1 0
15.45 14.65 -2.1 0 0 -1
15.45 13 -0.45 0 -1 0
15.35 14.8 -2.05 0 1 0
15.35 14.75 -2.1 0 0 -1
15.35 13 -0.35 0 -1 0
15.25 14.8 -1.95 0 1 0
15.25 13 -0.25 0 -1 0
15.25 13.05 -0.2 0 0 1
15.15 14.8 -1.85 0 1 0
15.05 14.8 -1.75 0 1 0
15.05 13.1 -0.15 0 -1 0
15.05 13.15 -0.1 0 0 1
14.95 14.8 -1.65 0 1 0
14.85 14.8 -1.55 0 1 0
14.85 13.2 -0.05 0 -1 0
14.85 13.25 4.47035e-08 0 0 1
14.75 14.8 -1.45 0 1 0
14.65 14.8 -1.35 0 1 0
14.65 13.3 0.05 0 -1 0
14.65 13.35 0.1 0 0 1
14.55 14.8 -1.25 0 1 0
14.45 14.8 -1.15 0 1 0
14.45 13.4 0.15 0 -1 0
14.45 13.45 0.2 0 0 1
14.35 14.8 -1.05 0 1 0
14.25 14.8 -0.95 0 1 0
14.25 13.5 0.25 0 -1 0
14.25 13.55 0.3 0 0 1
14.15 14.8 -0.85 0 1 0
14.15 13.65 0.3 0 0 1
14.05 14.8 -0.75 0 1 0
13.95 14.8 -0.65 0 1 0
13.95 13.7 0.35 0 -1 0
13.95 13.75 0.4 0 0 1
13.85 14.8 -0.55 0 1 0
13.75 14.8 -0.45 0 1 0
13.75 13.8 0.45 0 -1 0
13.75 13.85 0.5 0 0 1
13.65 14.8 -0.35 0 1 0
13.55 14.8 -0.25 0 1 0
13.55 13.9 0.55 0 -1 0
13.55 13.95 0.6 0 0 1
13.45 14.8 -0.15 0 1 0
13.35 14.8 -0.05 0 1 0
13.35 14 0.65 0 -1 0
13.35 14.05 0.7 0 0 1
13.25 14.8 0.05 0 1 0
13.25 14.15 0.7 0 0 1
13.15 14.8 0.15 0 1 0
13.05 14.8 0.25 0 1 0
13.05 14.2 0.75 0 -1 0
13.05 14.25 0.8 0 0 1
12.95 14.8 0.35 0 1 0
12.85 14.8 0.45 0 1 0
12.85 14.3 0.85 0 -1 0
12.85 14.35 0.9 0 0 1
12.75 14.8 0.55 0 1 0
12.65 14.8 0.65 0 1 0
12.65 14.4 0.95 0 -1 0
12.65 14.45 1 0 0 1
12.55 14.8 0.75 0 1 0
12.45 14.8 0.85 0 1 0
12.45 14.5 1.05 0 -1 0
12.45 14.55 1.1 0 0 1
12.35 14.8 0.95 0 1 0
12.25 14.8 1.05 0 1 0
12.25 14.6 1.15 0 -1 0
12.25 14.65 1.2 0 0 1
12.15 14.8 1.15 0 1 0
12.15 14.75 1.2 0 0 1
16.8 13.45 -2.05 1 0 0
16.75 13.45 -2.1 0 0 -1
16.8 13.35 -1.95 1 0 0
16.8 13.25 -1.85 1 0 0
16.8 13.15 -1.75 1 0 0
16.8 13.05 -1.65 1 0 0
16.75 13 -1.65 0 -1 0
16.65 13.55 -2.1 0 0 -1
16.65 13 -1.55 0 -1 0
16.55 13.65 -2.1 0 0 -1
16.55 13 -1.45 0 -1 0
16.45 13.75 -2.1 0 0 -1
16.45 13 -1.35 0 -1 0
16.35 13.85 -2.1 0 0 -1
16.35 13 -1.25 0 -1 0
16.25 13.95 -2.1 0 0 -1
16.25 13 -1.15 0 -1 0
16.15 14.05 -2.1 0 0 -1
16.15 13 -1.05 0 -1 0
16.05 14.15 -2.1 0 0 -1
16.05 13 -0.95 0 -1 0
15.95 14.25 -2.1 0 0 -1
15.95 13 -0.85 0 -1 0
15.85 14.35 -2.1 0 0 -1
15.85 13 -0.75 0 -1 0
15.75 14.45 -2.1 0 0 -1
15.75 13 -0.65 0 -1 0
15.65 14.55 -2.1 0 0 -1
15.65 13 -0.55 0 -1 0
15.55 14.65 -2.1 0 0 -1
15.55 13 -0.45 0 -1 0
15.45 14.8 -2.05 0 1 0
15.45 14.75 -2.1 0 0 -1
15.45 13 -0.35 0 -1 0
15.35 14.8 -1.95 0 1 0
15.35 13 -0.25 0 -1 0
15.35 13.05 -0.2 0 0 1
15.25 14.8 -1.85 0 1 0
15.15 14.8 -1.75 0 1 0
15.15 13.1 -0.15 0 -1 0
15.15 13.15 -0.1 0 0 1
15.05 14.8 -1.65 0 1 0
14.95 14.8 -1.55 0 1 0
14.95 13.2 -0.05 0 -1 0
14.95 13.25 4.47035e-08 0 0 1
14.85 14.8 -1.45 0 1 0
14.75 14.8 -1.35 0 1 0
14.75 13.3 0.05 0 -1 0
14.75 13.35 0.1 0 0 1
14.65 14.8 -1.25 0 1 0
14.55 14.8 -1.15 0 1 0
14.55 13.4 0.15 0 -1 0
14.55 13.45 0.2 0 0 1
14.45 14.8 -1.05 0 1 0
14.35 14.8 -0.95 0 1 0
14.35 13.5 0.25 0 -1 0
14.35 13.55 0.3 0 0 1
14.25 14.8 -0.85 0 1 0
14.25 13.65 0.3 0 0 1
14.15 14.8 -0.75 0 1 0
14.05 14.8 -0.65 0 1 0
14.05 13.7 0.35 0 -1 0
14.05 13.75 0.4 0 0 1
13.95 14.8 -0.55 0 1 0
13.85 14.8 -0.45 0 1 0
13.85 13.8 0.45 0 -1 0
13.85 13.85 0.5 0 0 1
13.75 14.8 -0.35 0 1 0
13.65 14.8 -0.25 0 1 0
13.65 13.9 0.55 0 -1 0
13.65 13.95 0.6 0 0 1
13.55 14.8 -0.15 0 1 0
13.45 14.8 -0.05 0 1 0
13.45 14 0.65 0 -1 0
13.45 14.05 0.7 0 0 1
13.35 14.8 0.05 0 1 0
13.35 14.15 0.7 0 0 1
13.25 14.8 0.15 0 1 0
13.15 14.8 0.25 0 1 0
13.15 14.2 0.75 0 -1 0
13.15 14.25 0.8 0 0 1
13.05 14.8 0.35 0 1 0
12.95 14.8 0.45 0 1 0
12.95 14.3 0.85 0 -1 0
12.95 14.35 0.9 0 0 1
12.85 14.8 0.55 0 1 0
12.75 14.8 0.65 0 1 0
12.75 14.4 0.95 0 -1 0
12.75 14.45 1 0 0 1
12.65 14.8 0.75 0 1 0
12.55 14.8 0.85 0 1 0
12.55 14.5 1.05 0 -1 0
12.55 14.55 1.1 0 0 1
12.45 14.8 0.95 0 1 0
12.35 14.8 1.05 0 1 0
12.35 14.6 1.15 0 -1 0
12.35 14.65 1.2 0 0 1
12.25 14.8 1.15 0 1 0
12.25 14.75 1.2 0 0 1
16.8 13.55 -2.05 1 0 0
16.75 13.55 -2.1 0 0 -1
16.8 13.45 -1.95 1 0 0
16.8 13.35 -1.85 1 0 0
16.8 13.25 -1.75 1 0 0
16.8 13.15 -1.65 1 0 0
16.8 13.05 -1.55 1 0 0
16.75 13 -1.55 0 -1 0
16.65 13.65 -2.1 0 0 -1
16.65 13 -1.45 0 -1 0
16.55 13.75 -2.1 0 0 -1
16.55 13 -1.35 0 -1 0
16.45 13.85 -2.1 0 0 -1
16.45 13 -1.25 0 -1 0
16.35 13.95 -2.1 0 0 -1
16.35 13 -1.15 0 -1 0
16.25 14.05 -2.1 0 0 -1
16.25 13 -1.05 0 -1 0
16.15 14.15 -2.1 0 0 -1
16.15 13 -0.95 0 -1 0
16.05 14.25 -2.1 0 0 -1
16.05 13 -0.85 0 -1 0
15.95 14.35 -2.1 0 0 -1
15.95 13 -0.75 0 -1 0
15.85 14.45 -2.1 0 0 -1
15.85 13 -0.65 0 -1 0
15.75 14.55 -2.1 0 0 -1
15.75 13 -0.55 0 -1 0
15.65 14.65 -2.1 0 0 -1
15.65 13 -0.45 0 -1 0
15.55 14.8 -2.05 0 1 0
15.55 14.75 -2.1 0 0 -1
15.55 13 -0.35 0 -1 0
15.45 14.8 -1.95 0 1 0
15.45 13 -0.25 0 -1 0
15.45 13.05 -0.2 0 0 1
15.35 14.8 -1.85 0 1 0
15.25 14.8 -1.75 0 1 0
15.25 13.1 -0.15 0 -1 0
15.25 13.15 -0.1 0 0 1
15.15 14.8 -1.65 0 1 0
15.05 14.8 -1.55 0 1 0
15.05 13.2 -0.05 0 -1 0
15.05 13.25 4.47035e-08 0 0 1
14.95 14.8 -1.45 0 1 0
14.85 14.8 -1.35 0 1 0
14.85 13.3 0.05 0 -1 0
14.85 13.35 0.1 0 0 1
14.75 14.8 -1.25 0 1 0
14.65 14.8 -1.15 0 1 0
14.65 13.4 0.15 0 -1 0
14.65 13.45 0.2 0 0 1
14.55 14.8 -1.05 0 1 0
14.45 14.8 -0.95 0 1 0
14.45 13.5 0.25 0 -1 0
14.45 13.55 0.3 0 0 1
14.35 14.8 -0.85 0 1 0
14.35 13.65 0.3 0 0 1
14.25 14.8 -0.75 0 1 0
14.15 14.8 -0.65 0 1 0
14.15 13.7 0.35 0 -1 0
14.15 13.75 0.4 0 0 1
14.05 14.8 -0.55 0 1 0
13.95 14.8 -0.45 0 1 0
13.95 13.8 0.45 0 -1 0
13.95 13.85 0.5 0 0 1
13.85 14.8 -0.35 0 1 0
13.75 14.8 -0.25 0 1 0
13.75 13.9 0.55 0 -1 0
13.75 13.95 0.6 0 0 1
13.65 14.8 -0.15 0 1 0
13.55 14.8 -0.05 0 1 0
13.55 14 0.65 0 -1 0
13.55 14.05 0.7 0 0 1
13.45 14.8 0.05 0 1 0
13.45 14.15 0.7 0 0 1
13.35 14.8 0.15 0 1 0
13.25 14.8 0.25 0 1 0
13.25 14.2 0.75 0 -1 0
13.25 14.25 0.8 0 0 1
13.15 14.8 0.35 0 1 0
13.05 14.8 0.45 0 1 0
13.05 14.3 0.85 0 -1 0
13.05 14.35 0.9 0 0 1
12.95 14.8 0.55 0 1 0
12.85 14.8 0.65 0 1 0
12.85 14.4 0.95 0 -1 0
12.85 14.45 1 0 0 1
12.75 14.8 0.75 0 1 0
12.65 14.8 0.85 0 1 0
12.65 14.5 1.05 0 -1 0
12.65 14.55 1.1 0 0 1
12.55 14.8 0.95 0 1 0
12.45 14.8 1.05 0 1 0
12.45 14.6 1.15 0 -1 0
12.45 14.65 1.2 0 0 1
12.35 14.8 1.15 0 1 0
12.35 14.75 1.2 0 0 1
16.8 13.65 -2.05 1 0 0
16.75 13.65 -2.1 0 0 -1
16.8 13.55 -1.95 1 0 0
16.8 13.45 -1.85 1 0 0
16.8 13.35 -1.75 1 0 0
16.8 13.25 -1.65 1 0 0
16.8 13.15 -1.55 1 0 0
16.8 13.05 -1.45 1 0 0
16.75 13 -1.45 0 -1 0
16.65 13.75 -2.1 0 0 -1
16.65 13 -1.35 0 -1 0
16.55 13.85 -2.1 0 0 -1
16.55 13 -1.25 0 -1 0
16.45 13.95 -2.1 0 0 -1
16.45 13 -1.15 0 -1 0
16.35 14.05 -2.1 0 0 -1
16.35 13 -1.05 0 -1 0
16.25 14.15 -2.1 0 0 -1
16.25 13 -0.95 0 -1 0
16.15 14.25 -2.1 0 0 -1
16.15 13 -0.85 0 -1 0
16.05 14.35 -2.1 0 0 -1
16.05 13 -0.75 0 -1 0
15.95 14.45 -2.1 0 0 -1
15.95 13 -0.65 0 -1 0
15.85 14.55 -2.1 0 0 -1
15.85 13 -0.55 0 -1 0
15.75 14.65 -2.1 0 0 -1
15.75 13 -0.45 0 -1 0
15.65 14.8 -2.05 0 1 0
15.65 14.75 -2.1 0 0 -1
15.65 13 -0.35 0 -1 0
15.55 14.8 -1.95 0 1 0
15.55 13 -0.25 0 -1 0
15.55 13.05 -0.2 0 0 1
15.45 14.8 -1.85 0 1 0
15.35 14.8 -1.75 0 1 0
15.35 13.1 -0.15 0 -1 0
15.35 13.15 -0.1 0 0 1
15.25 14.8 -1.65 0 1 0
15.15 14.8 -1.55 0 1 0
15.15 13.2 -0.05 0 -1 0
15.15 13.25 4.47035e-08 0 0 1
15.05 14.8 -1.45 0 1 0
14.95 14.8 -1.35 0 1 0
14.95 13.3 0.05 0 -1 0
14.95 13.35 0.1 0 0 1
14.85 14.8 -1.25 0 1 0
14.75 14.8 -1.15 0 1 0
14.75 13.4 0.15 0 -1 0
14.75 13.45 0.2 0 0 1
14.65 14.8 -1.05 0 1 0
14.55 14.8 -0.95 0 1 0
14.55 13.5 0.25 0 -1 0
14.55 13.55 0.3 0 0 1
14.45 14.8 -0.85 0 1 0
14.45 13.65 0.3 0 0 1
14.35 14.8 -0.75 0 1 0
14.25 14.8 -0.65 0 1 0
14.25 13.7 0.35 0 -1 0
14.25 13.75 0.4 0 0 1
14.15 14.8 -0.55 0 1 0
14.05 14.8 -0.45 0 1 0
14.05 13.8 0.45 0 -1 0
14.05 13.85 0.5 0 0 1
13.95 14.8 -0.35 0 1 0
13.85 14.8 -0.25 0 1 0
13.85 13.9 0.55 0 -1 0
13.85 13.95 0.6 0 0 1
13.75 14.8 -0.15 0 1 0
13.65 14.8 -0.05 0 1 0
13.65 14 0.65 0 -1 0
13.65 14.05 0.7 0 0 1
13.55 14.8 0.05 0 1 0
13.55 14.15 0.7 0 0 1
13.45 14.8 0.15 0 1 0
13.35 14.8 0.25 0 1 0
13.35 14.2 0.75 0 -1 0
13.35 14.25 0.8 0 0 1
13.25 14.8 0.35 0 1 0
13.15 14.8 0.45 0 1 0
13.15 14.3 0.85 0 -1 0
13.15 14.35 0.9 0 0 1
13.05 14.8 0.55 0 1 0
12.95 14.8 0.65 0 1 0
12.95 14.4 0.95 0 -1 0
12.95 14.45 1 0 0 1
12.85 14.8 0.75 0 1 0
12.75 14.8 0.85 0 1 0
12.75 14.5 1.05 0 -1 0
12.75 14.55 1.1 0 0 1
12.65 14.8 0.95 0 1 0
12.55 14.8 1.05 0 1 0
12.55 14.6 1.15 0 -1 0
12.55 14.65 1.2 0 0 1
12.45 14.8 1.15 0 1 0
12.45 14.75 1.2 0 0 1
16.8 13.75 -2.05 1 0 0
16.75 13.75 -2.1 0 0 -1
16.8 13.65 -1.95 1 0 0
16.8 13.55 -1.85 1 0 0
16.8 13.45 -1.75 1 0 0
16.8 13.35 -1.65 1 0 0
16.8 13.25 -1.55 1 0 0
16.8 13.15 -1.45 1 0 0
16.8 13.05 -1.35 1 0 0
16.75 13 -1.35 0 -1 0
16.65 13.85 -2.1 0 0 -1
16.65 13 -1.25 0 -1 0
16.55 13.95 -2.1 0 0 -1
16.55 13 -1.15 0 -1 0
16.45 14.05 -2.1 0 0 -1
16.45 13 -1.05 0 -1 0
16.35 14.15 -2.1 0 0 -1
16.35 13 -0.95 0 -1 0
16.25 14.25 -2.1 0 0 -1
16.25 13 -0.85 0 -1 0
16.15 14.35 -2.1 0 0 -1
16.15 13 -0.75 0 -1 0
16.05 14.45 -2.1 0 0 -1
16.05 13 -0.65 0 -1 0
15.95 14.55 -2.1 0 0 -1
15.95 13 -0.55 0 -1 0
15.85 14.65 -2.1 0 0 -1
15.85 13 -0.45 0 -1 0
15.75 14.8 -2.05 0 1 0
15.75 14.75 -2.1 0 0 -1
15.75 13 -0.35 0 -1 0
15.65 14.8 -1.95 0 1 0
15.65 13 -0.25 0 -1 0
15.65 13.05 -0.2 0 0 1
15.55 14.8 -1.85 0 1 0
15.45 14.8 -1.75 0 1 0
15.45 13.1 -0.15 0 -1 0
15.45 13.15 -0.1 0 0 1
15.35 14.8 -1.65 0 1 0
15.25 14.8 -1.55 0 1 0
15.25 13.2 -0.05 0 -1 0
15.25 13.25 4.47035e-08 0 0 1
15.15 14.8 -1.45 0 1 0
15.05 14.8 -1.35 0 1 0
15.05 13.3 0.05 0 -1 0
15.05 13.35 0.1 0 0 1
14.95 14.8 -1.25 0 1 0
14.85 14.8 -1.15 0 1 0
14.85 13.4 0.15 0 -1 0
14.85 13.45 0.2 0 0 1
14.75 14.8 -1.05 0 1 0
14.65 14.8 -0.95 0 1 0
14.65 13.5 0.25 0 -1 0
14.65 13.55 0.3 0 0 1
14.55 14.8 -0.85 0 1 0
14.55 13.65 0.3 0 0 1
14.45 14.8 -0.75 0 1 0
14.35 14.8 -0.65 0 1 0
14.35 13.7 0.35 0 -1 0
14.35 13.75 0.4 0 0 1
14.25 14.8 -0.55 0 1 0
14.15 14.8 -0.45 0 1 0
14.15 13.8 0.45 0 -1 0
14.15 13.85 0.5 0 0 1
14.05 14.8 -0.35 0 1 0
13.95 14.8 -0.25 0 1 0
13.95 13.9 0.55 0 -1 0
13.95 13.95 0.6 0 0 1
13.85 14.8 -0.15 0 1 0
13.75 14.8 -0.05 0 1 0
13.75 14 0.65 0 -1 0
13.75 14.05 0.7 0 0 1
13.65 14.8 0.05 0 1 0
13.65 14.15 0.7 0 0 1
13.55 14.8 0.15 0 1 0
13.45 14.8 0.25 0 1 0
13.45 14.2 0.75 0 -1 0
13.45 14.25 0.8 0 0 1
13.35 14.8 0.35 0 1 0
13.25 14.8 0.45 0 1 0
13.25 14.3 0.85 0 -1 0
13.25 14.35 0.9 0 0 1
13.15 14.8 0.55 0 1 0
13.05 14.8 0.65 0 1 0
13.05 14.4 0.95 0 -1 0
13.05 14.45 1 0 0 1
12.95 14.8 0.75 0 1 0
12.85 14.8 0.85 0 1 0
12.85 14.5 1.05 0 -1 0
12.85 14.55 1.1 0 0 1
12.75 14.8 0.95 0 1 0
12.65 14.8 1.05 0 1 0
12.65 14.6 1.15 0 -1 0
12.65 14.65 1.2 0 0 1
12.55 14.8 1.15 0 1 0
12.55 14.75 1.2 0 0 1
16.8 13.85 -2.05 1 0 0
16.75 13.85 -2.1 0 0 -1
16.8 13.75 -1.95 1 0 0
16.8 13.65 -1.85 1 0 0
16.8 13.55 -1.75 1 0 0
16.8 13.45 -1.65 1 0 0
16.8 13.35 -1.55 1 0 0
16.8 13.25 -1.45 1 0 0
16.8 13.15 -1.35 1 0 0
16.8 13.05 -1.25 1 0 0
16.75 13 -1.25 0 -1 0
16.65 13.95 -2.1 0 0 -1
16.65 13 -1.15 0 -1 0
16.55 14.05 -2.1 0 0 -1
16.55 13 -1.05 0 -1 0
16.45 14.15 -2.1 0 0 -1
16.45 13 -0.95 0 -1 0
16.35 14.25 -2.1 0 0 -1
16.35 13 -0.85 0 -1 0
16.25 14.35 -2.1 0 0 -1
16.25 13 -0.75 0 -1 0
16.15 14.45 -2.1 0 0 -1
16.15 13 -0.65 0 -1 0
16.05 14.55 -2.1 0 0 -1
16.05 13 -0.55 0 -1 0
15.95 14.65 -2.1 0 0 -1
15.95 13 -0.45 0 -1 0
15.85 14.8 -2.05 0 1 0
15.85 14.75 -2.1 0 0 -1
15.85 13 -0.35 0 -1 0
15.75 14.8 -1.95 0 1 0
15.75 13 -0.25 0 -1 0
15.75 13.05 -0.2 0 0 1
15.65 14.8 -1.85 0 1 0
15.55 14.8 -1.75 0 1 0
15.55 13.1 -0.15 0 -1 0
15.55 13.15 -0.1 0 0 1
15.45 14.8 -1.65 0 1 0
15.35 14.8 -1.55 0 1 0
15.35 13.2 -0.05 0 -1 0
15.35 13.25 4.47035e-08 0 0 1
15.25 14.8 -1.45 0 1 0
15.15 14.8 -1.35 0 1 0
15.15 13.3 0.05 0 -1 0
15.15 13.35 0.1 0 0 1
15.05 14.8 -1.25 0 1 0
14.95 14.8 -1.15 0 1 0
14.95 13.4 0.15 0 -1 0
14.95 13.45 0.2 0 0 1
14.85 14.8 -1.05 0 1 0
14.75 14.8 -0.95 0 1 0
14.75 13.5 0.25 0 -1 0
14.75 13.55 0.3 0 0 1
14.65 14.8 -0.85 0 1 0
14.65 13.65 0.3 0 0 1
14.55 14.8 -0.75 0 1 0
14.45 14.8 -0.65 0 1 0
14.45 13.7 0.35 0 -1 0
14.45 13.75 0.4 0 0 1
14.35 14.8 -0.55 0 1 0
14.25 14.8 -0.45 0 1 0
14.25 13.8 0.45 0 -1 0
14.25 13.85 0.5 0 0 1
14.15 14.8 -0.35 0 1 0
14.05 14.8 -0.25 0 1 0
14.05 13.9 0.55 0 -1 0
14.05 13.95 0.6 0 0 1
13.95 14.8 -0.15 0 1 0
13.85 14.8 -0.05 0 1 0
13.85 14 0.65 0 -1 0
13.85 14.05 0.7 0 0 1
13.75 14.8 0.05 0 1 0
